NCOLS 752
NROWS 32
XLLCORNER 675588.260805
YLLCORNER 8226916.64004
CELLSIZE 90.000000
NODATA_VALUE -99999
58 71 77 85 87 79 67 58 59 73 94 93 82 78 71 57 44 20 13 37 61 66 61 56 56 55 74 84 83 95 110 121 136 131 112 116 118 115 104 92 82 74 84 89 93 105 111 116 112 100 100 97 83 76 70 69 60 52 53 39 25 19 14 19 33 30 36 46 58 64 57 51 38 21 24 53 62 58 62 67 64 58 69 77 73 66 71 66 64 64 69 103 116 113 98 85 72 60 65 74 68 65 60 68 73 71 67 61 61 53 42 48 55 57 65 82 81 80 75 67 68 74 81 81 87 93 96 95 93 88 78 78 87 89 89 91 100 106 143 188 224 238 238 229 223 231 240 246 246 246 241 241 242 236 242 237 225 212 205 195 190 188 185 182 178 172 164 152 133 122 112 123 143 142 129 133 134 119 109 109 109 108 108 108 110 113 114 114 113 115 113 115 117 121 124 126 131 147 156 165 171 183 202 220 235 249 259 264 257 258 254 238 247 237 244 260 251 246 220 207 213 221 228 233 246 262 269 263 258 258 260 261 259 257 251 247 246 243 245 253 257 260 256 248 247 238 227 217 215 203 188 186 184 180 170 155 146 149 159 168 186 190 196 205 206 217 228 226 219 217 217 220 221 227 232 227 241 252 255 253 242 237 237 239 238 239 235 234 232 230 230 230 232 234 233 235 235 238 239 237 235 233 229 222 217 215 212 211 208 209 209 210 211 209 210 209 205 198 192 191 187 187 185 180 180 181 182 181 182 185 187 190 190 189 189 185 182 180 179 179 180 178 173 171 170 167 165 164 161 160 160 158 160 159 159 161 162 162 162 162 161 160 160 160 161 159 157 158 160 161 158 155 153 154 154 154 153 153 153 155 153 152 154 154 156 156 154 155 154 157 157 156 155 155 155 155 155 153 154 155 157 157 156 156 156 159 160 158 156 156 156 156 158 160 159 160 160 160 159 159 158 159 159 159 161 160 160 164 169 172 178 180 180 179 176 175 171 166 163 163 162 164 163 162 163 165 166 165 165 167 169 171 172 173 172 174 174 173 173 175 175 176 175 175 175 176 175 172 171 171 170 171 172 170 171 171 172 172 172 172 172 171 171 171 171 170 172 172 171 172 172 171 173 173 174 174 174 176 176 178 178 178 179 178 179 180 180 181 181 181 181 183 183 184 184 183 184 184 186 188 189 190 189 190 190 191 193 194 194 196 197 203 210 210 205 198 196 195 196 200 203 206 211 211 205 201 199 201 202 202 206 207 210 215 216 220 220 223 227 224 223 230 236 241 247 239 244 255 265 264 269 268 257 248 243 239 235 230 222 224 231 237 244 251 248 247 251 255 261 264 266 265 264 264 265 263 259 253 249 247 248 246 247 246 251 255 255 256 258 264 271 269 268 270 274 277 277 279 281 278 276 280 285 287 292 297 292 288 286 283 282 287 291 294 293 289 286 281 282 285 283 278 280 277 278 282 284 287 288 286 282 284 272 257 250 247 244 240 237 236 234 232 231 234 233 231 230 229 229 228 230 230 232 233 231 226 224 221 223 223 222 221 222 220 222 225 228 231 234 241 241 230 217 214 212 210 209 208 210 210 209 209 209 210 213 217 221 227 232 243 252 243 222 220 219 218 214 216 214 211 217 221 230 253 269 279 280 284 285 287 286 289 294 299 301 302 304 307 309 314 317 321 325 325 320 309 307 311 315 318 322 321
44 60 65 73 82 72 58 43 41 55 76 79 73 64 59 37 21 10 27 55 61 65 53 45 51 55 74 82 88 100 109 124 137 118 116 113 103 107 111 103 85 66 76 91 99 110 110 105 101 92 92 96 93 86 80 75 63 58 59 56 50 38 15 25 32 33 39 49 58 58 50 47 35 16 28 51 57 56 62 67 63 54 63 72 66 59 63 62 64 64 69 84 87 85 78 68 65 49 49 55 54 51 39 53 57 55 53 57 50 34 27 21 18 30 41 59 64 62 57 55 62 69 77 78 88 92 95 91 89 89 78 73 71 79 82 92 97 112 146 195 223 234 228 217 225 227 232 242 250 253 247 249 253 247 245 246 241 227 213 204 199 193 189 183 173 158 141 127 117 113 109 112 123 125 123 124 116 112 108 109 109 109 110 110 110 111 111 111 112 112 113 114 114 118 119 122 125 131 137 143 152 161 174 201 225 238 252 252 253 258 254 238 238 235 245 258 251 239 207 198 202 210 216 225 242 250 256 253 249 255 258 262 261 257 251 250 248 245 244 250 253 256 256 251 246 231 224 214 210 207 206 207 204 194 187 166 145 159 171 164 182 188 192 200 209 218 223 224 223 223 226 227 230 235 238 233 246 251 256 256 248 247 250 248 245 244 240 239 238 236 233 233 233 235 234 233 234 233 231 233 233 231 230 225 218 216 213 212 211 212 211 212 211 211 211 207 204 197 193 189 188 186 184 180 180 181 182 182 184 186 188 192 192 191 187 185 185 180 178 177 176 172 168 167 166 165 163 163 159 159 160 159 157 158 159 161 160 160 159 160 158 157 158 159 159 158 157 156 160 158 156 155 154 154 154 153 154 153 153 155 154 153 154 152 154 155 155 155 155 155 155 154 155 153 154 156 156 156 155 154 155 155 156 156 156 157 161 159 156 157 156 157 156 159 160 159 159 161 159 159 159 162 162 161 159 159 159 161 167 171 177 179 180 179 175 173 169 166 164 163 163 163 164 163 164 164 165 164 166 167 170 171 171 171 171 172 172 173 174 175 174 175 175 176 176 175 175 174 172 170 172 173 172 171 171 173 172 173 172 171 173 173 172 170 170 170 171 172 171 172 173 173 174 174 174 174 175 176 177 177 175 176 177 178 181 179 180 180 181 182 183 183 184 184 185 184 186 185 188 189 191 193 191 193 193 193 196 197 197 200 200 204 209 206 202 199 196 195 197 199 202 204 208 207 203 200 199 200 202 201 203 203 206 208 210 216 219 223 222 225 225 227 230 235 234 237 241 247 256 253 266 271 268 260 245 236 233 229 223 225 229 233 237 242 246 248 252 255 258 260 262 266 266 266 266 264 258 253 252 247 250 250 251 249 254 260 266 268 271 274 276 271 272 274 275 277 280 282 283 281 279 281 283 286 293 299 298 295 291 284 278 277 281 287 287 285 286 281 279 277 277 275 273 274 281 283 281 280 278 277 278 287 287 260 248 246 244 240 236 234 234 233 231 230 231 230 229 227 228 227 229 230 230 228 224 222 221 221 222 222 219 218 219 219 220 222 228 233 235 240 242 229 217 216 213 211 209 208 209 209 209 209 210 212 215 215 219 223 230 239 241 220 216 217 215 216 216 216 213 217 231 226 235 263 274 281 284 289 292 295 299 299 294 299 299 300 301 305 306 309 311 313 319 319 319 312 310 311 317 323 325 324
36 50 47 54 67 65 47 37 30 44 64 63 59 47 45 20 7 16 37 57 62 57 46 31 40 50 69 80 86 98 113 120 123 106 101 96 86 102 109 102 81 60 74 90 100 108 98 91 87 82 87 98 102 90 76 76 64 57 53 50 47 29 15 32 40 41 40 43 47 47 46 45 32 15 27 46 49 51 56 59 53 48 51 56 55 59 63 62 61 60 61 73 74 74 66 51 52 29 19 24 24 21 20 22 20 20 27 30 20 14 14 13 8 8 12 17 30 49 45 38 55 70 73 79 90 93 91 91 87 88 85 68 59 63 82 94 97 113 141 184 211 220 213 213 227 237 238 241 251 256 253 252 258 257 241 239 243 236 227 216 201 190 185 179 150 129 119 111 109 108 107 105 107 105 108 107 105 108 107 108 107 108 110 109 111 109 110 112 110 112 114 114 114 115 117 120 123 128 130 135 140 148 159 174 206 227 252 252 253 256 249 228 234 251 254 253 240 218 198 193 198 199 207 219 230 230 234 235 240 251 254 257 261 257 252 253 250 247 243 244 244 245 250 249 246 240 234 226 224 222 227 222 215 209 201 161 154 173 179 173 188 194 195 198 208 216 222 225 226 229 233 233 235 241 241 238 248 252 256 259 259 261 262 260 260 265 260 260 262 259 242 235 238 239 238 235 233 232 229 227 227 225 224 223 218 216 215 214 212 212 213 213 214 213 210 208 204 198 196 189 188 186 184 180 178 181 184 183 186 189 188 190 191 192 188 186 185 184 177 174 173 170 168 166 166 164 161 160 158 158 158 158 158 157 158 157 158 158 157 157 157 156 155 158 156 157 156 157 157 154 153 152 152 154 153 154 152 152 155 154 154 154 154 154 154 155 153 154 155 154 155 154 155 155 153 155 155 157 158 158 156 155 154 155 156 157 158 157 159 158 158 159 158 156 156 155 157 158 158 158 163 164 165 162 159 159 161 164 168 171 177 179 179 177 175 172 169 165 164 164 163 165 166 165 164 163 164 165 168 168 169 169 170 169 169 170 170 173 173 174 173 173 174 175 176 177 175 175 172 172 173 173 171 172 174 174 173 173 172 172 174 173 173 172 171 171 171 171 172 172 171 171 174 175 175 174 175 176 176 176 177 177 178 178 178 178 179 180 181 182 182 183 184 185 183 185 185 187 189 192 194 194 193 194 196 197 196 199 203 207 205 207 206 206 202 199 197 197 198 200 201 205 208 206 204 202 201 199 201 202 203 203 205 207 209 211 214 215 217 224 230 231 230 230 235 242 243 249 246 250 263 272 273 264 246 239 231 227 224 224 226 232 236 238 243 245 247 254 258 260 259 262 260 263 265 267 265 264 262 255 251 255 257 260 258 266 271 270 272 274 275 273 275 278 279 277 278 282 282 283 284 284 286 292 296 300 299 296 293 285 279 274 276 287 287 285 282 281 278 273 273 274 271 271 273 273 272 269 274 279 283 282 272 253 246 244 243 238 237 235 234 232 231 231 228 229 229 228 226 227 229 227 224 224 223 222 220 221 222 221 220 219 219 219 219 222 227 231 233 235 239 237 228 221 214 212 209 207 209 209 211 213 214 213 214 215 217 221 227 240 220 214 214 216 214 213 214 212 212 226 248 251 251 267 279 287 292 295 299 295 299 299 299 300 301 302 303 305 306 308 310 312 317 321 319 316 311 312 318 325 326 324
21 40 35 35 50 57 48 29 18 30 52 51 43 34 20 8 11 20 38 60 56 47 40 22 30 45 56 74 83 98 110 115 108 95 89 79 77 96 102 97 74 60 76 90 107 116 94 83 73 76 83 90 97 87 65 54 49 39 31 29 20 12 5 20 25 31 29 35 36 37 39 38 25 13 25 38 42 42 54 53 48 54 51 56 55 57 60 60 53 49 56 66 68 64 52 41 34 25 11 10 9 9 13 12 9 17 22 18 10 16 19 12 14 16 14 11 13 18 27 24 28 53 68 75 84 89 94 95 86 87 90 75 49 58 79 90 95 110 139 174 190 198 194 208 227 243 251 250 253 246 238 237 251 252 229 210 216 227 223 210 191 177 170 153 123 113 107 105 103 105 105 105 107 106 106 107 108 109 109 110 110 109 110 109 111 112 112 110 109 111 111 114 114 115 117 119 122 125 127 131 137 140 146 174 206 227 234 228 233 239 230 224 235 240 247 253 239 204 190 190 192 195 199 204 214 217 217 216 224 235 241 239 245 247 255 252 248 243 240 239 244 244 245 249 255 256 246 237 237 238 234 223 216 210 181 159 176 192 190 184 193 199 197 203 210 214 221 228 231 232 236 240 241 243 247 241 247 257 261 261 267 273 272 271 276 278 278 279 281 274 255 241 240 240 238 235 233 233 228 226 226 223 221 220 217 217 215 215 214 214 215 215 216 215 210 210 205 201 196 189 188 186 185 181 177 179 181 184 189 194 193 192 192 193 190 189 187 187 181 177 174 171 168 165 164 163 161 159 157 156 157 156 155 156 155 156 157 156 157 156 156 155 154 155 155 154 154 155 154 154 152 154 152 153 152 151 152 153 154 153 153 154 154 155 156 155 153 153 154 154 156 154 155 155 154 153 154 158 159 157 157 157 156 156 157 157 157 158 157 155 155 158 159 155 156 157 160 157 157 159 161 162 163 162 161 160 159 164 168 171 174 176 177 177 175 173 170 166 164 163 164 166 166 166 165 167 169 166 167 168 167 168 168 167 168 169 170 171 173 174 175 176 177 177 178 176 175 174 175 173 173 173 172 173 175 175 174 174 174 173 173 173 173 172 172 172 172 173 172 172 172 172 173 174 174 174 176 176 175 176 176 177 179 179 179 179 180 181 181 181 183 185 186 185 186 185 185 189 192 194 196 196 195 195 198 198 199 202 204 205 206 207 206 204 202 198 198 197 199 201 202 206 208 208 207 203 201 199 203 203 204 204 205 205 207 209 211 214 222 226 230 232 234 239 240 242 247 248 239 246 257 265 264 261 252 241 232 227 226 226 232 235 240 241 241 242 246 251 255 255 255 258 262 263 279 270 265 264 261 259 255 258 263 266 266 266 269 268 269 274 277 278 282 287 289 286 286 286 286 286 287 287 287 293 297 297 291 287 285 279 274 274 276 278 281 281 275 275 273 271 270 271 271 269 268 266 266 268 277 281 275 266 254 246 243 241 242 240 237 235 234 231 231 230 228 229 227 228 227 227 227 224 222 223 223 221 220 220 220 221 221 220 217 218 220 225 231 234 227 228 235 242 235 224 213 209 211 209 209 209 212 214 217 216 215 214 214 220 232 232 217 214 214 215 214 213 210 208 211 227 251 270 271 281 289 293 299 295 299 302 307 306 304 305 308 306 307 308 307 310 313 315 321 327 327 325 325 320 323 328 328 327
13 27 25 22 35 48 48 33 16 21 39 35 33 16 7 11 17 18 38 57 49 45 31 16 25 43 54 62 81 96 101 104 103 94 85 72 76 95 93 90 70 56 74 86 102 114 101 79 65 56 58 50 48 41 9 10 10 11 11 24 8 10 10 21 22 24 22 20 13 15 14 25 9 3 9 17 20 18 30 53 48 54 41 44 55 67 64 61 49 49 55 60 59 56 43 24 24 18 21 28 30 30 25 22 18 31 41 28 27 38 39 26 38 42 32 32 25 13 16 15 12 24 48 63 72 81 94 91 83 85 87 78 50 64 81 93 95 102 125 154 163 170 181 207 231 247 254 251 257 249 234 222 228 225 209 176 189 205 203 180 166 155 141 118 109 105 104 106 105 106 103 104 106 105 109 109 113 117 112 112 111 110 111 109 111 112 112 110 110 111 112 113 114 113 115 116 119 122 125 127 137 140 146 156 168 183 192 192 197 205 192 194 194 195 209 222 212 192 184 188 190 193 195 199 205 209 211 210 213 218 223 220 225 236 249 245 242 240 237 238 241 243 242 248 254 253 251 247 241 233 222 211 193 170 158 171 195 202 199 198 202 204 203 210 217 221 224 227 231 237 242 247 249 250 251 245 253 264 270 269 270 277 277 278 280 280 276 276 281 276 270 257 248 243 239 238 234 233 231 227 225 220 221 218 219 219 216 215 214 215 217 217 215 214 212 210 205 201 197 190 186 187 183 181 178 178 182 184 188 197 202 198 195 194 193 190 188 188 183 179 179 175 169 164 162 162 160 158 157 156 156 155 154 154 154 154 155 154 157 157 155 154 154 154 153 153 154 154 153 153 153 154 153 152 153 153 153 152 153 152 152 154 153 153 154 155 156 157 157 157 155 156 155 153 154 154 153 155 155 154 155 157 157 156 156 157 157 157 156 156 157 159 158 157 156 156 157 156 157 157 160 163 165 163 161 160 159 165 167 170 173 175 175 175 173 171 169 165 165 166 167 165 165 167 169 170 171 167 165 165 167 168 167 169 169 170 171 170 173 173 175 177 179 178 179 178 176 178 176 173 172 173 173 174 174 174 175 174 174 174 174 174 172 174 172 172 172 172 173 172 172 173 173 173 172 175 176 175 176 177 177 178 179 179 180 180 180 181 182 182 183 184 184 184 186 187 186 189 192 192 195 194 194 195 196 197 199 202 204 205 206 206 205 204 202 200 201 200 200 202 202 205 206 206 205 202 203 204 205 203 204 204 205 207 207 209 211 212 217 224 227 230 238 252 250 239 238 237 239 246 254 257 256 256 252 239 231 229 227 227 231 235 240 241 240 244 248 250 251 254 258 267 276 277 284 280 276 272 266 261 258 258 260 262 262 265 271 272 272 274 279 284 291 297 301 303 301 300 297 296 295 292 294 294 293 292 285 281 285 279 274 271 271 274 272 272 270 268 269 269 266 270 272 269 265 262 261 270 274 267 255 248 245 241 240 240 240 239 238 235 235 233 231 231 229 228 228 227 227 227 227 227 226 225 223 221 222 221 220 219 218 218 216 215 217 225 235 239 227 221 224 225 219 215 212 210 211 208 206 206 210 212 214 214 216 215 215 225 227 227 214 210 210 211 213 212 210 211 218 235 255 275 283 288 294 293 299 300 304 305 309 310 306 308 309 309 310 312 311 313 316 320 325 328 329 331 330 326 327 329 329 330
4 14 14 14 24 38 44 34 13 26 32 30 23 6 11 20 20 24 36 47 44 31 15 15 29 47 61 65 79 103 93 88 98 91 81 65 71 80 80 80 56 42 67 85 92 94 82 61 39 7 8 8 8 9 9 10 10 10 11 9 10 9 20 23 25 31 23 19 14 11 15 20 17 12 15 21 20 18 30 30 28 30 21 30 39 54 58 57 43 47 50 49 43 38 34 18 15 29 43 54 45 34 26 37 38 41 57 54 54 53 45 33 49 52 47 56 48 34 25 13 8 13 16 42 51 65 75 82 76 77 83 76 44 58 85 89 92 93 111 131 132 149 175 204 234 247 250 250 252 250 238 232 221 204 171 127 126 151 150 144 132 117 107 102 102 103 107 111 112 109 106 106 110 112 116 115 118 117 113 114 114 114 112 112 112 112 113 114 113 114 113 113 114 114 114 119 118 120 125 127 130 133 138 144 146 150 152 154 158 160 159 161 163 165 169 177 176 180 185 189 191 193 195 198 202 204 208 209 212 214 217 217 219 226 240 244 242 238 236 232 233 236 242 244 247 250 256 254 245 228 204 185 158 159 167 193 207 209 208 210 207 207 208 215 224 230 233 237 240 244 248 250 250 252 253 252 252 267 274 276 273 277 279 279 278 273 265 263 272 273 273 267 260 255 244 239 235 234 231 228 225 223 222 222 221 220 220 216 217 219 220 219 215 214 212 210 206 201 194 189 185 184 181 180 176 178 181 184 187 200 204 204 200 195 192 191 191 190 186 182 180 177 171 167 164 161 160 157 156 155 156 154 153 152 152 154 153 153 153 154 154 152 154 154 154 153 153 153 151 151 151 154 151 151 151 150 150 152 152 151 152 154 154 154 156 156 156 156 156 155 153 154 153 151 154 156 159 156 152 151 154 156 158 156 155 155 156 159 158 159 163 162 160 159 156 155 157 157 157 159 160 163 165 163 161 161 160 164 165 170 171 172 172 172 170 169 168 165 166 167 166 166 168 170 171 171 167 166 167 166 169 169 170 170 171 172 173 174 174 177 177 177 180 180 180 177 176 177 175 173 173 175 175 175 175 175 174 175 174 174 175 174 173 174 173 173 173 170 172 174 174 173 174 176 176 176 176 176 177 178 177 178 179 179 179 180 179 179 181 182 183 184 185 186 187 188 187 191 192 192 192 192 194 195 194 196 199 202 202 204 205 207 206 203 202 202 202 203 203 203 205 204 205 207 206 205 205 205 207 205 206 207 207 207 208 207 207 212 217 223 224 226 233 244 242 234 229 234 245 248 254 254 251 252 251 238 229 226 227 227 232 233 234 234 237 243 246 249 254 262 267 279 283 280 281 283 281 281 279 269 260 261 265 267 275 282 287 290 287 284 281 281 284 291 300 299 299 300 302 301 300 298 297 297 297 294 285 281 278 275 273 269 267 269 269 268 268 265 262 264 265 271 274 272 269 260 258 267 263 254 249 245 243 242 239 239 239 238 237 238 236 232 230 231 230 228 228 227 226 226 227 228 228 226 225 224 222 221 219 218 218 217 219 219 216 220 227 229 223 217 215 217 215 213 210 207 208 207 206 207 206 207 208 207 210 210 211 213 212 210 208 209 208 207 210 212 214 218 226 236 249 271 283 288 294 297 299 300 303 305 310 312 310 310 311 310 312 315 315 316 317 320 324 327 328 329 328 329 327 330 332 333
3 3 3 11 12 28 37 26 14 26 26 18 12 5 15 19 21 26 35 38 34 18 11 16 35 54 67 74 98 103 86 77 90 88 75 63 60 68 72 64 35 29 62 77 72 52 26 9 7 7 8 8 8 9 9 10 13 12 19 28 24 15 25 34 45 48 40 38 41 27 19 31 32 12 15 21 16 18 22 20 18 11 8 10 22 28 35 37 29 27 30 25 19 24 12 16 35 45 47 58 46 35 31 32 43 25 46 57 53 53 48 50 58 60 62 72 68 60 58 44 28 15 11 19 16 24 30 36 42 39 43 47 33 56 82 89 91 89 98 109 117 137 169 201 224 234 238 238 242 245 242 238 226 203 129 85 81 96 107 104 102 103 103 108 110 112 115 118 114 108 107 110 117 122 125 125 123 119 123 121 120 118 117 116 117 117 117 117 117 117 116 116 116 116 116 119 118 120 122 125 128 132 136 135 138 138 141 141 144 146 149 154 159 167 175 180 181 192 198 203 204 200 202 204 208 206 209 213 214 214 216 217 217 218 229 238 238 240 231 218 224 237 241 241 241 246 242 246 228 192 172 161 161 171 186 203 211 214 215 216 214 214 213 221 232 243 243 244 244 247 250 252 256 259 261 260 257 268 273 275 273 274 277 275 271 270 265 255 259 267 269 269 262 258 249 240 233 232 232 229 227 225 223 221 222 220 220 219 220 221 220 219 218 215 216 219 210 199 194 187 185 184 181 180 175 177 179 181 187 194 206 207 204 198 194 193 194 192 186 185 183 178 172 171 167 164 160 157 156 156 156 155 153 152 151 152 152 151 153 152 152 151 151 152 152 151 151 153 151 152 151 152 150 151 151 150 151 151 153 154 154 153 153 152 153 153 153 154 153 153 152 153 157 160 163 164 167 164 161 154 154 156 156 156 155 157 157 157 158 161 161 161 161 159 159 160 159 158 159 159 160 161 162 161 161 161 162 163 165 169 173 172 173 172 170 168 167 166 166 167 166 167 170 171 171 169 165 166 167 168 168 169 170 171 172 174 176 176 178 179 178 179 180 180 179 179 178 178 176 176 175 175 175 175 174 176 176 176 175 174 174 174 173 173 172 173 174 173 172 173 174 172 174 173 175 175 176 177 176 177 179 179 180 180 180 179 181 182 182 182 183 185 186 186 187 188 187 188 189 190 190 191 191 195 194 196 198 199 200 203 205 208 207 205 204 205 203 204 204 206 206 206 207 208 207 207 207 206 209 209 209 209 210 208 208 208 208 209 214 216 217 219 227 237 233 230 228 233 241 250 254 252 248 249 247 235 230 227 228 229 231 232 234 239 240 241 246 256 261 268 275 279 283 286 282 284 285 284 282 270 260 267 275 280 285 288 291 291 291 292 288 288 289 286 287 291 293 296 297 298 298 299 294 296 297 294 288 283 276 272 271 269 265 264 264 265 265 263 260 261 266 274 279 279 276 266 257 254 249 247 244 243 242 240 239 236 238 237 236 235 235 232 233 231 230 229 229 229 226 226 228 229 228 224 226 226 225 223 222 220 221 223 225 222 220 223 224 221 216 213 211 211 212 209 207 206 205 206 205 206 205 208 208 208 208 211 216 219 221 224 230 230 221 214 212 215 218 221 227 234 249 271 285 291 296 299 300 301 303 308 311 317 315 315 314 314 314 316 316 318 319 321 325 326 328 327 327 329 329 330 331 334
3 3 3 3 3 3 3 11 6 13 10 7 8 17 20 16 18 25 33 30 21 9 10 14 41 59 72 77 98 94 76 60 68 72 64 56 51 56 59 56 34 25 53 56 36 6 7 7 7 7 7 8 16 11 16 20 23 25 29 40 35 31 46 59 59 57 54 54 54 38 19 31 32 31 41 46 38 37 34 28 23 18 21 19 23 22 20 14 8 11 20 12 14 24 30 29 39 46 47 49 48 44 39 39 44 21 49 65 60 54 52 67 63 72 72 72 75 76 76 73 58 47 25 18 9 13 14 17 15 15 14 17 18 39 64 83 86 85 96 98 106 126 157 175 188 199 207 212 219 227 227 211 199 153 88 75 86 83 88 99 111 116 118 120 121 124 124 119 112 113 114 112 120 126 127 127 127 125 126 125 126 124 121 120 121 123 123 123 121 121 120 118 116 116 116 118 117 119 121 124 126 130 132 132 135 136 137 139 142 143 152 164 179 193 210 206 211 225 227 226 220 216 217 218 221 213 210 213 215 216 217 216 217 217 216 215 214 217 215 204 222 228 236 236 235 236 232 234 194 173 164 166 174 188 202 209 217 220 221 220 218 216 217 231 242 251 253 255 251 250 251 255 261 263 267 267 265 266 271 271 270 266 268 272 268 267 259 250 248 252 256 255 249 249 247 239 231 232 231 229 227 224 222 220 222 222 222 219 220 221 220 220 217 217 222 224 217 204 189 185 182 181 181 179 176 176 179 180 186 187 198 205 207 203 197 197 195 194 188 189 186 179 174 174 170 167 162 159 156 156 156 155 156 153 152 151 151 152 154 152 152 153 150 151 154 151 153 154 153 153 151 153 150 152 154 154 152 155 155 154 155 154 153 153 153 154 154 154 152 154 157 163 165 164 165 165 165 164 164 160 156 156 157 157 156 157 156 156 158 158 160 161 162 162 162 161 159 158 159 160 160 159 160 161 161 161 163 166 170 176 177 177 175 171 169 168 166 167 167 167 167 169 171 171 169 169 166 166 166 167 169 170 171 173 176 177 177 177 179 180 180 179 180 180 179 180 178 176 175 174 174 175 176 177 178 179 176 177 177 177 175 174 173 174 174 175 173 173 172 172 174 174 173 174 174 175 176 176 177 177 177 179 180 181 180 180 180 181 182 182 183 183 185 186 187 187 187 188 188 188 190 191 191 192 193 195 197 198 201 202 206 213 213 209 208 206 207 208 207 208 209 209 210 210 209 210 209 210 210 212 213 212 211 210 208 210 211 210 213 217 215 217 220 229 228 225 228 237 244 250 247 243 241 238 237 236 232 230 231 237 238 232 236 239 242 246 252 258 263 272 280 281 285 288 284 282 282 281 281 272 261 264 276 281 285 287 287 287 288 289 290 290 295 294 290 292 292 293 291 290 291 299 294 296 295 289 284 280 276 273 272 270 266 265 264 263 262 262 259 260 265 271 276 279 276 269 258 252 249 247 245 242 241 240 242 237 236 237 237 235 236 235 234 233 231 229 229 229 230 228 230 231 227 226 230 230 228 227 226 222 224 225 225 218 216 220 218 214 212 210 209 210 209 207 208 206 205 206 209 211 214 214 214 214 213 217 221 225 228 233 242 241 233 221 216 217 222 228 227 234 242 265 278 288 296 300 304 306 309 311 314 318 317 316 315 316 317 318 319 319 321 322 323 325 326 327 326 330 328 331 333 335
3 8 9 3 3 3 3 3 3 3 3 3 3 15 16 11 18 18 25 25 16 8 17 18 41 55 69 78 92 84 65 47 48 52 48 50 53 54 57 58 43 19 26 25 6 6 7 7 6 13 24 32 28 21 25 31 35 36 36 45 41 34 50 59 63 64 63 54 54 38 33 36 34 45 49 49 44 43 46 47 46 43 52 52 46 32 23 17 16 10 16 27 29 39 45 39 30 34 43 52 49 44 43 42 44 24 44 66 60 56 67 70 67 77 85 79 78 77 85 78 75 66 41 37 27 24 37 46 48 38 28 15 15 18 31 58 80 81 87 94 105 112 135 153 163 163 173 177 187 190 188 166 111 82 69 81 96 97 99 111 120 121 122 125 127 127 124 116 113 118 121 115 121 128 131 131 130 131 129 130 132 134 135 132 133 133 132 130 128 121 120 118 118 117 118 119 118 118 121 123 124 128 129 130 132 133 134 138 140 142 151 177 208 224 236 238 241 240 240 236 232 228 224 219 217 214 214 215 218 219 219 220 220 220 219 214 209 202 199 194 209 222 221 222 225 222 212 193 171 170 170 173 179 193 208 214 218 221 222 220 218 216 218 233 243 255 260 265 267 264 261 263 266 269 272 270 267 266 266 262 261 260 262 261 258 257 253 245 240 241 242 241 237 237 236 231 229 230 228 227 228 224 221 222 222 222 222 222 222 222 221 221 222 220 221 224 219 206 195 185 180 181 181 178 177 177 180 180 184 186 194 198 204 204 201 198 199 195 189 190 188 184 180 176 173 168 164 160 159 158 156 155 154 155 153 151 152 153 153 152 149 150 151 152 154 153 154 155 154 153 151 151 151 152 154 155 153 152 150 152 154 155 155 153 151 154 155 156 155 158 164 165 163 163 163 163 162 162 163 161 156 153 155 157 156 156 156 156 158 159 159 163 162 162 162 161 159 158 158 159 160 161 162 164 165 163 165 170 176 179 180 180 180 176 173 169 167 166 167 168 168 171 172 172 168 169 168 168 167 169 170 172 173 175 174 176 175 176 180 181 182 181 182 181 180 181 179 177 175 174 177 176 176 179 179 180 177 178 178 178 177 176 174 174 175 174 173 173 171 173 173 174 174 175 176 177 175 175 178 178 177 178 179 181 181 181 181 182 181 184 185 184 185 186 187 189 189 189 188 188 190 191 191 193 196 196 197 199 204 206 209 220 223 219 214 211 212 211 211 211 212 212 212 212 212 214 212 214 212 213 215 215 214 212 211 211 212 213 212 215 215 215 218 224 224 223 226 232 239 244 242 240 239 242 242 241 235 232 230 238 242 237 240 242 243 248 253 260 270 276 284 286 287 289 286 284 279 275 272 266 267 267 272 278 282 280 281 283 284 284 287 289 290 293 294 294 295 294 290 290 291 293 289 291 292 286 281 278 276 273 271 270 265 263 262 262 260 259 257 258 262 266 269 270 268 264 258 256 252 250 246 242 241 242 243 240 238 238 240 240 239 236 235 234 232 233 232 231 231 230 232 234 231 229 233 234 234 231 227 225 227 227 225 217 214 212 213 211 211 209 208 210 208 208 209 208 206 211 213 214 215 216 216 215 215 218 221 226 229 240 244 244 238 228 223 222 222 228 233 238 239 255 274 286 294 301 306 309 312 314 317 318 318 317 317 316 318 318 319 319 320 321 323 323 324 326 324 327 327 330 334 334
9 12 8 8 6 6 9 7 3 3 3 3 3 3 9 7 13 11 14 14 13 10 20 18 33 46 55 67 82 73 52 39 44 51 49 48 53 48 46 46 28 15 18 6 6 6 13 7 12 30 36 34 27 21 24 29 34 38 38 45 40 36 58 69 63 64 63 61 49 44 37 33 39 57 59 50 56 53 51 53 46 53 59 61 56 46 36 36 24 13 29 39 39 51 56 52 45 47 49 57 55 47 47 51 55 27 35 44 48 54 67 71 71 79 87 78 87 82 79 75 78 74 58 53 42 19 37 59 66 66 59 50 38 20 19 28 59 62 85 92 102 109 125 143 147 149 149 145 147 147 119 74 56 61 75 98 102 106 109 116 121 121 124 127 129 135 120 119 126 129 126 117 125 134 137 138 136 139 144 144 144 149 152 149 147 147 132 130 128 126 127 125 124 120 120 122 121 121 121 123 123 126 125 130 132 131 134 137 139 144 149 169 190 202 219 241 248 247 245 239 234 230 227 225 219 218 219 221 224 223 223 227 228 229 225 226 220 207 200 192 191 198 191 191 194 188 179 172 173 175 179 187 195 202 212 219 222 226 227 223 218 217 220 230 241 258 269 273 276 273 272 275 274 275 277 275 267 261 261 261 257 253 250 249 250 249 249 240 234 233 233 232 231 229 229 228 225 224 224 226 226 224 221 222 224 225 225 224 222 223 222 223 223 222 222 223 217 203 196 190 181 179 179 176 175 176 180 182 187 188 195 204 207 207 205 201 201 198 191 191 190 187 181 180 176 170 165 162 159 157 156 156 154 156 156 152 153 154 151 151 149 150 152 151 152 151 152 153 152 152 155 153 154 153 152 152 151 150 150 154 154 154 151 151 154 161 162 162 161 163 164 163 163 163 162 161 161 160 160 159 157 155 155 156 156 156 156 158 159 161 161 163 162 162 164 163 160 160 159 160 160 161 161 166 168 166 169 172 173 174 176 176 178 178 176 173 171 169 169 171 169 171 171 169 171 169 169 169 168 170 172 172 173 174 176 177 177 178 179 180 182 181 180 180 179 180 179 179 176 175 177 176 176 179 180 180 180 179 178 179 177 176 174 174 175 174 173 172 172 173 172 172 174 175 175 176 174 176 178 177 177 177 178 180 180 181 180 183 182 183 185 185 186 186 188 189 189 189 190 190 191 191 192 193 195 197 198 199 205 209 213 220 234 236 226 221 221 217 218 218 215 215 217 216 218 216 215 215 216 214 217 217 217 216 215 214 214 214 212 213 215 214 215 218 220 221 226 229 236 243 241 240 245 244 240 235 234 231 230 241 242 241 245 244 250 253 260 263 270 275 281 287 286 287 286 285 280 273 269 271 277 275 269 272 275 275 277 278 281 283 284 287 289 291 294 297 295 294 290 287 285 284 287 290 290 287 281 277 274 272 270 267 264 264 264 263 260 258 256 258 258 258 259 259 260 261 260 259 256 248 245 242 244 245 243 244 251 254 257 249 242 238 237 237 235 235 236 234 232 233 234 236 233 232 235 239 240 234 228 227 229 229 225 228 226 216 213 212 211 209 209 209 210 210 210 207 209 214 216 215 214 215 216 215 215 218 223 232 238 243 244 246 243 228 223 222 226 230 239 248 245 261 276 283 292 301 305 311 313 316 318 321 322 319 318 317 318 319 319 319 320 321 323 321 322 324 324 324 323 326 330 333
17 16 11 9 8 8 9 13 11 6 15 12 3 3 3 3 3 3 5 11 14 8 16 18 24 36 42 58 68 62 47 33 36 44 41 37 32 24 19 17 5 5 5 7 7 13 22 19 9 19 26 27 27 28 31 37 39 43 47 52 46 36 58 69 69 68 67 64 59 54 44 39 43 60 59 56 56 60 65 60 50 59 67 69 63 55 48 47 33 19 44 50 48 53 56 56 49 51 57 65 61 54 56 61 57 34 52 45 50 62 73 77 78 83 86 81 89 87 84 72 73 76 70 64 63 34 18 47 65 69 68 69 62 45 31 23 28 44 68 74 77 85 100 115 120 119 121 105 97 81 63 52 66 89 103 110 111 119 121 121 122 120 122 128 139 138 133 145 145 147 132 127 133 142 146 154 158 168 177 180 183 180 179 149 147 147 142 140 136 135 132 129 128 125 125 124 124 124 122 124 124 126 127 129 131 133 136 137 140 146 149 156 167 177 192 219 241 248 243 238 232 230 228 227 225 225 224 225 228 229 231 232 236 239 241 235 228 220 213 208 200 194 192 193 196 193 183 177 183 189 195 214 224 226 227 234 235 237 238 232 227 225 230 233 247 262 271 279 281 280 284 284 282 281 281 277 268 263 262 264 259 251 242 244 246 245 243 238 231 229 228 226 226 226 227 225 223 221 221 226 226 221 221 223 224 224 224 223 223 223 221 224 223 220 221 219 213 201 195 191 187 180 177 173 174 177 181 185 193 195 199 203 207 207 205 204 202 198 192 191 190 188 184 181 177 173 165 164 160 156 154 154 155 157 156 152 152 153 151 150 151 152 151 152 154 152 151 150 153 152 151 153 153 150 152 151 151 153 154 153 152 152 151 155 159 162 163 161 162 163 162 162 162 162 162 161 161 158 157 157 157 156 156 155 156 156 156 158 159 161 161 162 163 163 163 162 162 162 160 161 161 161 162 166 166 165 165 169 170 170 172 173 174 175 174 174 174 172 171 172 172 172 171 170 170 171 172 169 169 172 173 172 174 174 175 176 175 177 179 178 180 180 183 181 180 180 180 178 177 176 176 177 178 178 180 180 180 180 178 178 177 176 176 175 174 175 172 171 172 173 173 174 174 176 176 176 175 177 178 178 178 177 177 179 179 181 181 183 185 185 185 185 185 186 188 189 189 190 191 190 191 192 191 194 195 195 196 198 204 209 211 216 229 229 221 221 218 217 218 221 219 219 221 221 220 220 219 218 220 221 220 219 220 218 218 216 216 216 216 216 216 215 216 216 218 221 222 226 235 246 249 246 243 239 236 236 233 232 233 240 244 244 245 248 249 254 260 265 272 277 282 285 285 284 283 284 282 278 274 274 276 276 273 269 269 273 275 278 279 282 283 284 287 290 294 297 297 297 293 289 286 282 281 284 287 287 286 281 275 271 270 268 265 266 267 266 263 258 257 256 255 255 253 254 255 255 253 256 251 244 242 242 244 247 250 260 267 268 263 251 243 239 239 240 239 238 237 238 237 236 238 238 237 238 240 241 241 235 229 229 230 227 231 239 236 222 213 211 210 210 209 209 209 209 208 207 209 212 215 213 213 214 216 217 221 225 232 238 243 245 245 246 243 239 242 233 228 234 247 260 266 272 280 283 292 303 307 311 314 317 319 322 324 323 321 319 318 319 319 319 320 321 320 319 320 320 321 322 322 323 327 331
26 21 12 11 12 15 19 19 10 19 34 29 19 16 3 3 3 3 3 3 7 9 14 19 17 34 42 46 50 45 33 26 5 5 23 21 5 5 5 5 5 5 20 29 26 22 35 34 19 15 23 28 28 33 41 43 47 49 47 52 46 40 66 70 67 70 74 74 64 60 51 47 53 72 78 73 68 74 69 58 50 58 68 71 66 60 55 54 42 29 55 58 57 58 59 55 48 49 57 62 66 64 63 61 47 48 53 48 59 75 81 80 83 87 89 85 90 88 83 79 77 74 68 63 67 58 28 23 56 69 70 78 79 64 64 41 22 25 35 41 47 52 59 68 67 72 66 55 51 50 47 64 89 102 110 118 125 130 125 119 119 119 121 135 143 147 160 160 166 159 144 133 138 146 151 159 171 182 193 198 183 180 179 183 180 168 159 155 148 144 141 137 136 133 132 128 126 126 126 125 127 128 130 131 133 134 136 139 142 149 154 158 163 169 178 195 223 237 233 230 229 230 230 228 226 226 226 229 233 234 237 239 245 252 245 241 236 229 224 224 217 208 206 206 208 211 195 193 200 213 229 233 236 236 238 243 246 248 247 244 240 233 238 244 255 263 274 282 289 292 291 291 289 288 286 284 277 274 268 266 260 252 238 242 243 240 237 232 230 227 225 223 223 223 223 220 223 221 221 223 222 220 219 222 223 224 225 226 226 224 223 224 222 218 218 216 209 201 197 193 186 182 176 175 178 177 184 188 192 196 201 204 207 210 206 203 201 198 194 193 189 185 185 181 178 175 169 165 162 158 156 154 154 155 153 150 151 152 149 151 151 154 152 150 152 150 150 150 151 150 151 151 151 150 151 152 152 152 153 153 152 151 155 160 161 162 162 160 162 162 162 163 162 163 161 159 158 158 157 156 155 155 155 155 157 156 156 158 159 162 163 163 164 166 165 165 165 163 162 162 161 159 161 162 162 163 164 166 167 167 168 171 171 172 174 174 174 172 172 173 172 172 172 172 172 173 171 169 169 172 172 172 173 175 174 176 177 176 176 177 178 180 182 181 182 181 180 179 178 177 177 179 178 179 181 182 182 183 179 179 180 179 176 176 176 175 173 172 172 173 175 175 175 176 177 177 178 179 180 178 179 179 178 181 182 180 182 182 185 185 185 185 185 188 189 189 190 191 192 193 193 194 193 195 195 195 197 199 202 206 206 207 214 214 213 213 211 214 216 219 222 222 224 226 228 229 228 226 224 224 224 224 232 234 230 221 219 217 218 216 216 215 218 218 221 222 222 225 237 244 251 252 246 242 237 234 232 233 234 240 243 246 247 253 257 258 262 266 270 274 277 281 282 281 282 283 282 280 278 278 278 275 273 272 270 271 272 275 276 279 282 283 287 290 295 299 302 301 297 294 291 285 281 278 278 280 280 282 279 277 274 271 268 267 266 265 262 259 257 256 256 254 251 251 250 247 248 250 246 244 242 244 247 252 257 265 262 257 252 245 242 242 243 240 244 242 241 240 239 238 242 242 241 240 242 241 238 234 232 230 231 230 233 238 238 232 218 212 212 211 210 208 208 209 209 208 208 211 213 214 213 215 216 221 226 229 236 241 244 245 245 245 244 248 253 246 246 256 260 272 280 283 282 282 293 303 307 311 317 322 323 327 327 325 324 320 319 319 318 318 318 318 317 317 318 317 318 321 321 323 326 328
30 26 22 25 23 24 28 22 13 22 30 26 23 16 10 8 3 3 3 3 3 3 3 9 10 19 22 25 28 17 13 4 5 5 5 5 5 5 5 5 7 9 20 30 33 29 36 38 33 27 36 31 31 39 40 43 47 49 52 60 56 51 70 74 72 74 79 76 66 64 52 54 61 80 86 82 88 85 75 63 54 56 68 75 76 69 67 58 44 43 63 63 62 61 62 57 50 51 57 65 68 66 67 60 51 55 63 62 61 78 84 84 85 89 89 85 87 86 84 82 82 78 74 68 65 63 36 18 17 52 69 79 81 74 79 74 49 27 26 31 33 32 37 41 43 44 43 45 46 51 60 85 98 104 114 119 123 129 121 114 112 116 119 131 147 166 170 171 175 169 154 137 139 146 152 160 174 183 193 198 203 205 205 210 216 214 201 186 169 159 155 148 149 144 140 137 133 131 130 128 130 134 137 137 137 137 141 141 144 154 163 168 172 180 188 205 218 227 229 230 228 229 227 226 224 223 225 230 238 244 251 255 255 255 251 247 245 241 240 230 219 216 213 213 214 217 213 219 233 241 245 249 253 252 250 249 248 252 251 251 248 240 243 247 256 271 276 283 288 292 294 294 291 290 287 286 282 279 272 266 266 256 243 237 237 237 233 229 227 225 224 223 220 223 223 220 220 220 219 221 219 217 217 221 222 223 225 227 224 225 223 223 220 215 215 212 204 199 196 190 186 181 173 175 178 179 183 186 189 194 200 203 207 208 206 203 201 197 195 194 191 187 186 179 178 174 170 165 162 159 154 152 154 154 153 150 150 151 151 151 151 152 151 151 151 151 152 152 152 151 150 149 150 150 150 151 153 152 152 154 152 153 157 159 159 160 161 162 163 163 163 163 163 161 160 159 158 156 155 155 156 156 156 155 157 156 157 159 160 163 164 164 167 167 169 170 169 167 163 161 159 160 161 162 166 165 164 164 164 165 166 168 169 169 171 171 172 172 172 173 172 174 174 174 173 172 170 170 170 171 173 171 174 173 174 176 176 175 176 178 178 181 183 183 183 183 181 178 180 179 179 180 180 181 182 183 182 182 182 182 182 180 179 177 176 176 173 174 173 174 175 176 177 177 177 177 178 180 179 179 181 180 179 183 182 180 181 182 185 185 185 186 186 187 188 189 190 191 193 193 194 195 195 195 196 195 198 198 201 203 204 206 207 210 209 208 209 212 218 220 225 228 229 242 254 259 252 235 228 228 228 227 234 240 240 226 221 219 219 218 218 218 218 219 220 220 222 226 235 234 239 251 251 242 237 235 235 233 236 239 241 246 249 253 259 265 271 275 277 274 276 277 278 277 279 280 281 282 282 281 278 277 276 274 272 272 273 275 276 279 282 283 287 290 294 303 313 311 307 300 295 289 285 280 278 276 274 278 277 277 275 272 268 267 265 265 261 260 257 256 256 255 254 254 251 247 248 253 250 244 246 249 257 260 262 260 253 249 248 251 253 256 255 244 245 243 242 241 241 240 242 241 238 239 238 236 234 232 232 233 232 233 235 238 241 238 222 213 212 211 209 208 209 207 207 205 207 211 214 214 215 216 219 223 229 232 236 241 244 247 246 245 245 253 259 264 267 272 272 277 284 285 286 286 291 302 309 315 317 325 328 333 330 325 322 320 319 319 318 318 317 317 316 314 316 317 317 317 319 323 324 323
36 36 33 35 34 28 26 18 25 30 34 31 33 22 16 10 8 5 8 8 3 3 3 3 4 4 4 4 4 4 4 4 9 13 9 10 12 14 5 6 7 13 24 26 33 38 35 42 40 40 44 44 31 39 40 40 48 50 57 61 56 56 71 76 75 81 83 72 67 64 60 62 71 89 94 103 107 100 83 67 63 68 79 83 78 73 74 67 52 67 71 65 64 64 60 55 53 52 59 67 67 65 65 47 51 64 69 73 67 73 86 85 87 91 90 87 87 85 84 85 86 83 78 75 70 70 55 27 9 19 54 75 80 75 82 87 83 71 70 72 68 55 49 46 49 53 64 81 87 84 84 94 96 102 113 119 124 128 119 114 107 111 117 126 149 163 163 175 175 167 155 139 137 143 149 160 174 183 192 197 201 204 207 215 221 221 219 213 186 176 174 165 164 166 157 148 144 136 136 134 137 141 145 143 143 145 149 147 149 157 168 177 189 208 221 235 241 242 238 234 229 229 226 223 224 222 226 233 244 254 259 260 261 262 260 255 252 251 243 232 225 221 218 217 217 221 223 233 245 254 257 259 254 250 247 242 243 248 253 259 256 255 262 267 265 280 289 292 294 298 300 296 293 291 289 286 284 281 274 267 261 254 244 239 231 231 228 226 225 223 224 223 220 221 221 219 218 217 216 216 215 214 214 218 219 220 222 223 222 224 224 224 219 215 214 209 204 199 195 189 183 178 175 177 177 179 181 183 189 194 198 200 202 208 205 203 201 196 196 192 191 190 187 181 179 174 169 166 161 159 154 152 152 150 150 151 152 150 150 149 150 151 151 149 151 151 151 151 151 151 150 150 151 151 151 151 151 151 151 154 154 157 157 157 158 161 162 161 161 162 163 163 161 161 160 159 158 156 155 156 157 156 156 155 155 157 158 160 162 163 163 165 168 169 170 171 169 165 162 161 160 162 162 162 162 163 163 164 166 166 164 168 168 169 169 171 173 172 172 173 174 175 173 175 174 173 170 170 170 169 172 172 174 173 173 175 175 175 175 177 179 182 183 183 184 182 179 180 179 179 180 183 183 184 184 184 185 185 185 185 183 182 180 179 179 176 174 175 174 174 174 175 177 177 177 178 178 179 179 180 182 181 183 185 185 183 181 182 183 185 185 185 187 187 188 191 190 190 193 193 194 195 196 197 197 197 197 196 198 200 201 203 203 207 207 206 209 213 218 222 228 234 243 263 286 296 284 262 240 233 230 227 229 239 238 228 224 222 221 221 220 221 220 220 218 219 222 225 230 229 233 241 243 243 242 238 235 234 234 237 238 243 251 255 266 278 287 291 287 277 270 272 274 275 276 277 278 282 282 282 282 280 280 277 277 273 273 275 276 278 282 285 286 291 300 317 337 333 322 311 300 292 288 288 286 279 275 273 272 271 269 268 266 263 262 261 261 259 258 257 255 254 254 253 251 251 254 261 264 251 248 252 262 265 260 256 254 253 258 257 258 260 253 246 242 241 240 239 238 241 242 239 235 235 234 232 230 229 231 234 234 236 238 239 237 231 222 222 220 215 211 208 208 207 209 207 207 210 211 211 211 213 219 222 229 232 238 241 243 247 247 244 246 253 259 266 271 276 275 279 283 287 290 291 294 303 311 316 321 326 332 333 330 324 321 319 318 319 318 315 313 313 313 313 314 314 314 316 318 322 323 321
48 49 46 44 34 27 24 32 39 45 46 40 38 32 18 11 7 5 7 9 7 3 3 3 4 4 4 4 4 6 8 10 10 18 19 15 24 24 12 9 14 17 26 31 38 46 43 48 45 40 44 44 30 34 41 38 41 49 59 60 53 54 72 77 80 81 84 80 67 59 65 66 78 104 120 120 118 108 90 73 65 81 87 90 82 76 73 68 69 77 75 67 65 67 62 57 52 57 66 73 70 60 51 50 63 72 74 74 70 67 83 86 90 92 91 90 89 88 90 92 89 84 83 81 74 73 69 55 25 10 25 67 74 77 81 86 91 90 89 91 93 85 75 66 73 81 86 94 97 96 92 93 93 100 107 113 116 122 117 112 104 106 110 122 138 149 161 176 176 168 154 145 137 143 149 157 168 176 186 193 196 201 203 213 216 215 219 220 213 200 201 199 194 186 173 160 153 144 146 144 148 153 156 157 154 153 160 158 159 166 181 196 213 237 242 246 246 244 240 236 233 228 224 222 221 220 224 238 249 260 266 267 270 271 269 266 263 256 243 231 224 221 220 216 216 219 222 240 257 259 259 256 245 242 239 237 236 243 251 259 262 260 269 277 275 276 289 295 299 303 305 301 299 294 290 285 283 279 271 261 255 252 247 237 232 230 226 225 225 223 224 221 219 220 219 217 215 215 214 215 214 211 210 217 220 217 217 221 222 223 223 224 220 213 211 207 203 198 196 191 180 176 176 175 177 179 182 184 186 191 194 193 198 206 203 201 199 196 197 194 192 189 184 180 180 175 170 167 162 160 157 154 151 152 152 151 152 151 149 149 149 150 150 149 150 149 148 151 150 151 151 151 151 149 150 151 151 153 150 152 153 155 154 156 158 161 162 160 160 160 160 160 161 163 160 159 157 158 155 156 157 157 157 155 157 157 158 159 161 163 164 169 171 171 170 171 168 166 164 162 161 163 164 165 163 162 164 165 166 167 166 166 168 168 169 169 171 170 172 173 174 176 176 177 175 173 170 170 171 168 170 171 170 171 172 173 174 175 175 176 180 183 185 188 185 185 183 182 180 180 182 185 185 188 187 188 190 188 188 186 185 182 181 180 181 176 175 175 175 174 174 175 176 176 177 176 179 178 180 182 184 184 187 185 185 183 183 183 183 184 185 186 186 187 189 188 190 192 194 192 193 196 197 196 197 198 198 199 201 200 202 203 203 205 206 208 211 215 218 225 231 243 260 285 307 314 297 274 252 239 236 239 248 248 236 228 228 224 229 232 224 222 221 220 219 220 222 224 226 228 230 235 238 249 248 239 235 234 237 238 242 247 253 258 271 287 291 290 282 278 270 266 271 273 273 274 276 279 281 281 282 283 283 282 277 273 273 273 276 280 282 283 288 292 305 326 339 330 316 311 301 294 292 293 292 285 281 275 273 271 268 268 267 266 262 261 260 260 258 256 256 256 256 254 254 260 257 257 256 251 249 250 256 259 257 259 264 262 262 260 258 254 251 245 242 239 239 237 236 236 237 234 232 232 230 229 228 230 232 234 236 239 240 242 240 233 237 245 239 227 215 209 207 209 206 206 207 212 215 213 213 213 219 222 229 231 238 241 239 243 242 242 243 249 255 263 269 270 272 276 282 289 293 296 295 305 313 321 327 327 329 330 328 321 316 318 317 318 315 314 313 312 312 313 312 313 314 314 315 317 318 319
57 56 43 35 36 31 35 45 47 52 51 40 32 32 19 9 6 8 8 10 8 7 7 17 13 19 17 15 20 13 9 19 22 26 33 34 38 37 15 9 17 24 34 38 47 51 43 48 45 49 57 50 35 32 45 46 43 44 56 61 53 53 69 76 83 94 95 89 66 61 60 73 99 122 136 135 128 116 104 90 72 83 94 96 90 85 75 69 79 81 79 70 65 68 66 58 53 64 72 74 67 54 52 66 76 76 78 76 77 71 80 90 97 98 96 94 90 93 100 99 90 90 88 85 79 72 71 73 58 23 12 76 72 76 81 82 89 89 87 88 86 81 77 77 80 86 88 89 91 92 91 88 94 98 100 105 107 107 106 103 99 102 108 122 130 138 163 176 175 168 154 145 140 143 151 155 169 179 187 192 195 201 200 202 207 206 213 218 219 216 215 217 216 211 200 185 175 161 159 160 165 169 170 172 168 175 185 186 185 187 201 217 226 233 238 240 243 246 244 239 230 224 220 218 215 217 223 237 251 261 269 273 276 274 272 271 266 249 237 229 220 219 216 216 214 216 227 241 254 256 250 247 241 233 227 227 229 237 252 259 265 267 275 281 286 282 290 301 305 308 310 306 303 298 292 283 280 274 267 262 259 252 252 245 233 230 226 225 223 222 222 219 219 218 218 215 215 215 214 213 212 208 210 214 216 215 214 217 219 219 218 220 218 211 206 204 198 196 194 191 183 176 174 173 176 179 180 186 187 188 191 191 194 202 203 200 197 196 196 195 193 192 188 179 176 173 170 168 164 162 162 155 150 151 149 151 151 151 151 150 150 149 149 149 150 150 151 151 149 149 150 149 150 150 151 150 150 151 152 152 153 154 154 156 159 160 161 160 160 159 161 160 162 161 161 159 157 158 157 156 156 157 156 156 159 157 157 159 162 166 168 173 173 171 169 168 166 165 163 164 164 167 165 165 163 162 163 166 167 166 165 166 167 167 168 168 169 170 172 172 174 176 176 176 175 174 172 172 172 172 173 170 170 172 172 174 175 175 177 180 183 186 192 193 191 188 186 184 182 182 181 186 189 190 192 201 204 199 200 194 190 186 185 184 181 178 177 174 175 176 175 173 175 176 177 178 178 180 181 182 184 184 187 190 188 184 183 183 184 184 185 186 189 189 188 188 191 193 194 193 194 194 195 196 198 197 198 200 202 203 202 203 204 203 206 208 211 213 219 226 241 272 293 317 337 342 322 294 268 252 258 266 273 255 238 233 229 228 233 246 237 228 226 223 221 221 222 228 234 236 233 234 241 251 247 239 236 235 237 239 242 246 254 267 280 288 283 279 276 278 271 263 268 270 271 270 274 277 278 279 281 283 283 282 279 279 278 276 278 278 281 286 297 304 310 320 323 315 310 305 301 299 301 304 306 302 296 282 275 276 274 272 272 269 265 264 261 260 258 257 259 258 257 255 255 260 261 256 256 255 254 251 253 256 261 269 271 269 262 258 255 257 256 248 241 238 237 237 235 233 232 230 230 228 228 227 227 228 232 237 239 241 243 248 249 250 256 266 256 237 220 210 208 207 205 210 212 213 216 213 213 213 216 222 227 232 235 239 240 242 241 243 247 254 259 265 270 275 276 278 284 293 295 298 298 305 316 323 327 327 324 326 322 316 315 315 315 315 314 312 310 310 311 310 311 313 313 313 314 318 319 321
58 49 36 39 42 29 39 49 54 56 52 42 34 31 24 11 7 11 13 16 17 10 13 21 17 24 30 33 32 23 11 24 33 36 50 58 59 57 24 7 19 31 48 38 47 51 46 53 54 55 59 56 45 36 43 46 46 45 47 51 49 57 70 80 90 102 102 88 66 59 61 83 107 130 142 142 137 134 120 103 84 91 102 100 95 88 70 76 83 83 85 75 64 70 64 60 60 71 78 77 70 64 61 72 78 80 84 81 81 78 84 91 101 106 100 96 97 98 103 103 92 88 88 83 74 75 76 74 70 53 16 48 64 75 82 77 84 89 87 91 84 81 82 78 80 83 88 89 92 91 86 85 87 91 94 98 102 102 98 97 101 101 108 122 127 138 163 176 175 169 162 158 145 145 157 163 174 182 187 189 196 200 201 200 200 200 203 208 215 216 218 219 226 229 226 221 205 186 186 189 188 191 190 188 189 197 207 210 209 213 216 220 225 228 231 231 234 239 240 235 226 219 216 214 212 218 224 237 249 261 272 274 277 276 274 272 262 245 231 229 226 217 214 212 211 214 227 236 246 249 238 233 230 225 222 224 233 239 253 265 272 277 283 292 298 295 293 308 311 311 310 309 306 300 294 285 281 275 268 266 263 254 252 245 233 228 228 227 225 222 221 219 219 217 216 215 216 211 210 209 208 207 208 211 211 209 210 211 212 213 216 217 213 208 204 203 196 193 191 188 183 178 175 174 176 179 181 186 188 189 190 189 191 197 200 198 194 194 195 193 193 192 188 181 176 172 170 168 167 165 163 154 150 149 150 150 149 150 150 152 148 149 148 150 149 149 150 149 150 150 150 150 150 149 150 149 150 151 152 152 152 154 154 158 159 161 160 159 160 161 160 160 162 161 161 162 159 160 159 157 156 156 155 157 158 158 158 160 163 168 172 172 171 169 168 166 165 166 165 165 166 166 167 167 165 163 164 165 166 167 168 166 167 168 169 168 168 169 171 173 174 176 176 177 176 174 173 173 172 173 174 174 173 173 174 175 175 176 179 183 185 191 203 205 193 191 193 188 185 182 186 191 196 195 206 224 231 231 226 216 203 199 190 188 185 182 180 175 175 174 175 175 175 176 177 177 178 179 181 182 184 189 194 197 196 192 188 184 184 184 185 186 188 189 188 189 190 192 193 195 196 197 196 197 197 198 198 201 201 203 202 203 203 205 206 206 210 213 220 232 258 297 331 352 374 380 364 329 300 278 294 304 293 268 248 238 233 230 232 243 244 242 240 234 223 221 221 226 239 243 243 238 239 243 244 239 237 237 240 242 243 246 256 266 271 273 273 274 277 271 267 260 263 265 267 269 272 273 273 274 281 283 283 286 286 283 281 277 276 276 279 290 301 301 302 304 302 301 301 300 299 300 302 303 301 301 297 293 292 290 284 279 275 272 269 268 264 261 260 260 261 260 257 256 258 260 265 262 265 260 256 254 256 263 268 271 272 272 263 259 260 262 260 253 242 237 235 235 234 232 231 228 229 227 226 227 227 230 235 239 242 247 250 253 256 262 266 270 261 236 218 211 207 206 205 210 214 213 216 215 213 215 216 221 227 233 233 237 242 244 243 244 248 253 257 264 270 275 276 284 287 292 296 301 303 309 315 319 320 318 315 314 311 312 312 313 312 312 311 310 309 310 310 310 312 313 313 314 316 318 320 321
47 36 34 39 41 36 44 52 58 57 53 44 41 33 24 20 19 25 24 22 20 7 16 24 27 33 37 48 52 41 29 28 35 45 69 80 73 63 33 11 19 31 48 53 54 54 50 59 60 61 67 59 50 37 37 42 52 57 54 52 49 56 65 77 90 104 103 88 64 68 64 88 110 134 146 151 151 147 137 118 101 102 109 104 99 88 74 85 87 89 87 74 67 71 68 68 67 77 84 81 72 62 66 78 82 83 85 85 84 81 84 96 108 107 102 97 98 98 99 100 95 89 85 79 81 81 79 75 64 52 30 24 48 57 75 76 74 83 83 87 76 74 81 80 83 85 86 87 89 85 82 86 89 88 91 96 98 95 95 98 104 103 107 122 127 138 157 173 176 171 171 164 146 147 158 165 175 181 182 186 193 195 198 198 195 194 193 197 206 210 214 223 225 230 234 236 229 219 224 224 221 219 219 215 212 217 216 217 221 221 221 223 225 226 229 230 232 233 230 225 220 215 211 209 209 215 225 235 245 261 272 275 275 274 270 273 272 267 255 256 226 217 213 209 208 212 217 226 240 242 229 222 216 220 220 226 240 246 258 274 282 288 297 307 313 313 300 305 313 313 313 310 310 304 296 291 281 274 271 268 263 254 245 237 237 244 245 241 231 226 223 222 220 217 217 214 215 214 210 207 206 206 206 208 208 205 205 206 204 205 207 212 211 205 202 200 195 192 189 187 185 179 175 174 173 177 181 183 185 189 190 191 190 190 192 191 190 190 192 190 188 188 184 180 177 175 171 169 169 169 159 150 150 151 149 150 151 151 153 151 150 150 149 149 149 150 150 150 151 149 150 149 149 149 150 150 151 150 152 153 153 153 155 156 157 157 156 159 160 159 160 160 162 161 162 162 161 159 158 157 157 157 157 157 157 158 161 161 166 167 167 169 171 169 169 166 167 165 167 168 168 167 168 167 166 164 164 165 167 167 168 169 168 169 170 169 169 169 171 172 173 175 174 177 175 175 175 173 171 172 173 174 172 173 173 174 175 176 178 182 187 201 218 219 190 197 201 194 186 184 186 190 199 202 220 242 261 262 252 238 222 213 201 191 191 186 181 177 177 175 175 174 175 175 176 176 178 179 180 182 186 193 206 215 208 196 190 187 186 185 187 190 188 189 188 189 191 192 192 195 196 197 196 197 196 197 198 198 200 202 203 202 204 205 206 206 210 212 221 240 277 318 353 368 380 387 381 360 333 315 342 346 322 298 272 245 239 241 236 235 238 241 239 237 228 225 221 225 240 258 259 244 248 247 245 241 238 239 244 244 245 248 249 252 259 267 278 280 280 277 270 263 262 262 262 266 268 273 273 274 280 285 288 295 294 287 282 279 278 278 280 285 291 291 293 292 291 294 294 296 297 300 301 308 308 306 308 317 321 311 298 288 284 278 273 271 266 264 262 262 262 264 261 259 260 259 265 270 272 261 259 259 263 267 270 274 277 274 264 263 263 262 256 246 239 236 235 235 232 230 229 228 227 225 225 227 227 231 234 240 245 247 250 252 252 251 254 251 243 227 213 209 208 207 206 210 214 214 217 214 214 217 221 223 224 225 233 239 241 244 244 247 248 254 261 263 269 273 280 285 289 291 294 301 304 309 309 308 306 302 300 304 309 310 310 311 310 309 309 308 308 309 311 311 312 313 312 314 317 318 320 322
39 35 42 47 42 46 58 60 65 59 57 53 51 36 24 24 29 31 28 23 19 9 18 30 34 45 52 64 73 57 36 44 50 61 80 85 77 63 33 11 20 34 47 57 62 62 58 68 70 71 74 64 56 45 33 38 52 60 53 55 58 64 70 75 87 98 103 84 63 74 80 99 115 136 151 160 167 167 157 141 121 120 125 108 96 82 77 93 99 106 93 70 82 92 86 75 72 81 85 75 70 62 69 82 89 88 90 89 89 85 83 90 105 111 104 100 98 98 96 95 93 92 86 87 88 86 81 77 80 68 47 20 17 26 47 55 55 67 71 74 68 68 78 80 85 88 88 87 84 81 84 89 90 89 95 98 95 91 92 101 104 103 107 119 135 150 161 170 174 173 175 163 148 149 162 167 173 177 180 185 189 192 193 194 192 189 190 190 196 202 209 219 224 226 231 236 239 240 242 243 247 248 245 238 233 229 228 227 227 229 229 229 229 229 230 230 232 231 224 222 217 211 209 208 207 207 216 231 246 259 268 273 271 269 279 286 284 280 271 256 241 228 216 209 208 209 210 214 229 234 220 213 212 215 219 225 241 254 265 286 299 308 312 320 328 323 309 301 311 314 313 311 308 306 299 289 281 274 271 268 265 250 241 248 252 257 256 255 247 232 227 225 223 221 219 217 216 216 210 206 204 203 204 205 204 203 202 201 201 201 200 204 206 200 197 197 195 192 188 185 183 180 176 173 171 174 177 182 183 185 189 191 190 187 187 186 186 186 187 187 184 184 182 180 177 175 172 169 169 166 149 148 148 150 149 150 152 152 151 150 151 150 149 148 148 148 151 150 150 149 150 150 149 151 150 150 151 151 152 152 153 154 152 153 156 156 158 157 160 159 160 160 162 162 162 160 161 161 159 157 157 158 158 157 158 160 161 163 164 166 168 172 173 170 168 167 169 168 168 170 170 168 168 168 167 167 167 168 167 167 167 168 168 169 170 169 170 169 170 172 174 175 175 176 175 175 174 174 174 174 175 175 175 176 175 175 175 175 177 181 187 200 215 200 191 194 198 192 186 186 189 197 204 209 231 263 292 294 286 266 237 215 200 201 214 203 185 179 175 176 176 176 175 175 176 176 178 180 179 181 184 191 203 219 215 196 191 189 189 189 190 192 192 191 190 190 191 193 194 196 196 197 198 199 199 199 199 199 199 202 201 202 205 206 208 207 207 211 222 244 279 327 354 362 364 365 369 363 352 347 363 366 334 300 278 262 259 262 254 243 237 236 234 234 229 225 224 232 253 276 274 256 253 251 246 243 239 240 243 242 245 248 250 252 266 281 284 281 273 276 276 263 258 261 263 266 268 269 270 278 292 299 303 314 312 300 291 285 281 279 279 282 283 286 288 288 293 298 297 302 305 308 305 315 323 321 318 321 328 328 312 300 297 287 275 271 270 268 264 264 265 265 265 264 263 264 264 266 266 261 261 266 268 272 273 272 275 271 262 258 256 257 251 241 234 234 232 232 231 230 228 226 226 224 223 226 227 231 235 240 241 241 244 244 237 233 235 235 223 218 209 209 208 207 206 210 214 215 217 215 216 218 225 229 231 227 227 235 239 245 249 250 248 256 263 266 271 275 281 286 288 290 295 297 296 299 299 296 294 295 300 302 306 307 307 307 306 308 308 308 309 309 312 313 314 316 316 315 317 319 320 324
45 45 54 57 49 63 80 76 73 71 67 61 51 32 26 28 35 43 39 31 27 12 17 33 51 63 72 88 85 64 48 64 75 83 80 85 77 59 32 22 19 28 47 61 68 67 68 74 75 71 75 68 60 56 41 39 55 59 47 51 60 72 77 92 102 104 103 82 71 75 92 101 118 141 154 168 176 181 168 159 143 133 131 106 90 85 91 109 117 116 89 95 113 116 96 82 83 90 81 67 67 63 80 89 94 94 94 92 89 86 85 91 98 105 104 102 98 94 97 92 88 85 88 91 89 85 79 82 83 78 71 47 17 6 10 17 23 32 37 36 49 64 70 76 81 83 88 87 86 83 79 85 88 91 95 95 92 91 92 101 109 112 108 128 143 158 166 170 172 173 171 158 151 153 163 169 173 175 178 182 187 187 190 190 188 186 186 186 191 194 200 208 213 218 225 229 237 243 246 248 249 253 256 258 254 248 241 243 241 239 237 236 235 234 231 228 229 228 228 228 217 207 205 205 206 206 209 219 239 252 261 263 268 278 288 289 284 277 266 261 251 237 223 213 207 205 203 201 214 220 212 208 210 215 220 227 243 261 280 303 315 324 328 335 339 330 321 310 312 312 311 311 308 308 299 289 281 280 279 273 274 265 257 258 261 265 263 263 252 232 229 228 228 225 225 221 218 218 215 210 206 202 201 202 201 200 199 199 197 199 200 197 197 194 193 194 194 190 189 185 181 178 175 171 170 174 174 179 180 183 186 191 191 188 186 183 183 182 183 182 180 180 179 178 175 174 171 168 164 149 148 153 150 151 151 149 149 149 150 150 150 148 149 149 148 149 150 149 149 150 151 150 149 151 151 152 151 151 152 152 152 154 152 154 156 156 158 157 157 157 158 159 162 163 162 160 160 160 158 159 158 158 159 158 158 160 161 162 164 168 171 175 172 171 170 168 170 171 169 171 172 170 169 168 167 167 166 168 168 167 168 170 169 171 171 170 170 170 170 171 172 174 174 177 176 175 173 174 174 176 176 175 175 177 179 178 176 177 179 181 191 202 204 196 192 195 197 191 186 188 191 209 231 233 248 279 307 309 293 267 242 216 204 210 216 210 194 181 176 178 177 176 175 176 176 177 177 179 180 182 183 184 191 198 199 193 190 190 191 195 198 198 195 192 192 188 190 192 193 194 194 197 198 198 199 202 203 202 201 202 204 205 205 206 207 209 209 209 221 242 277 321 340 343 339 333 335 336 333 340 357 358 331 305 296 290 280 272 258 247 241 237 234 232 229 224 224 230 248 271 274 261 254 250 250 242 240 243 242 240 243 246 251 254 263 272 277 275 267 266 263 257 258 261 263 265 268 268 271 286 299 311 312 317 313 308 300 290 283 284 283 282 284 286 288 293 300 304 303 309 313 314 311 311 323 328 324 323 327 327 323 319 312 298 281 275 275 270 266 266 266 267 268 271 269 268 264 260 261 264 263 266 269 276 274 269 268 265 258 250 247 245 242 237 233 232 231 232 230 228 225 224 223 223 223 224 227 231 233 236 238 239 239 235 228 222 221 223 227 223 209 209 207 209 207 210 213 214 216 215 218 222 227 230 234 234 234 235 234 245 250 252 255 260 268 269 271 276 281 285 285 286 287 288 288 289 290 291 295 298 299 299 301 304 304 305 305 306 307 307 310 311 313 316 317 317 317 318 317 319 321 325
55 61 70 61 61 85 89 88 89 78 64 49 36 34 26 27 53 57 48 44 35 14 13 40 69 83 94 102 85 62 59 64 75 83 92 97 82 67 52 27 18 21 49 69 71 69 74 76 74 69 74 71 64 56 44 36 52 59 52 49 58 70 88 98 110 118 105 90 80 79 108 118 129 143 154 173 186 190 177 172 154 144 132 109 91 98 114 137 141 125 120 125 131 122 109 89 88 88 78 83 88 70 77 91 98 98 97 95 95 92 89 95 103 107 104 101 93 92 90 89 88 87 89 89 91 92 78 86 85 89 81 63 41 16 10 23 30 26 19 13 14 34 39 49 66 76 84 80 79 80 73 84 98 100 102 95 92 90 94 106 115 121 124 132 146 159 166 168 168 164 161 154 154 155 164 170 175 177 179 183 186 186 186 187 184 185 184 182 185 189 194 197 201 213 214 218 224 233 238 243 248 251 253 257 260 258 257 259 257 251 249 243 238 234 230 225 222 227 228 225 215 207 205 203 202 206 208 210 221 240 255 266 278 281 283 282 278 268 260 258 256 246 229 217 208 202 197 197 202 206 205 207 207 215 221 237 255 275 295 314 326 333 338 338 343 338 324 316 311 310 309 311 308 308 300 291 292 295 293 291 292 285 270 265 265 270 269 267 253 237 243 240 234 229 231 226 226 222 216 212 206 202 202 199 198 197 197 196 196 199 199 195 191 189 189 191 190 189 188 182 179 176 176 171 170 173 174 178 182 186 187 190 189 189 186 182 182 179 178 178 177 178 177 176 175 174 172 166 151 147 149 150 149 148 149 148 148 147 149 149 148 148 148 149 148 149 149 149 149 149 150 150 149 149 150 150 152 152 150 151 152 154 152 154 156 156 157 156 156 157 158 160 163 164 163 162 160 159 159 159 159 157 157 160 159 159 160 162 165 167 170 171 170 170 169 170 170 170 170 172 172 170 169 168 168 169 168 168 168 169 169 169 170 171 170 169 171 170 171 173 173 173 174 175 176 176 175 176 175 175 178 178 180 181 183 180 177 177 178 182 200 211 208 203 198 197 197 192 189 191 195 218 247 256 265 286 301 303 286 257 234 217 210 211 209 205 194 181 176 178 177 177 176 176 176 176 176 178 180 181 182 183 187 188 189 189 187 189 192 200 209 211 202 196 194 190 191 191 193 194 195 197 197 198 200 202 204 202 201 205 206 205 207 206 206 210 211 209 217 232 257 285 295 296 298 288 286 288 292 308 328 338 322 305 297 292 283 272 266 258 265 257 239 233 232 226 228 231 242 262 279 278 268 263 258 245 243 243 242 242 244 245 249 254 260 258 258 257 255 257 263 257 258 263 271 276 279 275 274 280 294 307 308 304 299 291 289 288 287 288 285 283 283 288 291 297 304 307 313 318 319 318 305 299 311 321 321 323 326 327 326 324 321 311 296 284 278 270 266 264 262 264 269 271 270 270 264 258 257 258 262 267 274 273 268 264 266 261 253 252 249 245 239 235 232 230 228 228 229 226 225 225 223 222 225 227 228 230 231 232 234 230 227 226 222 222 223 237 228 223 210 208 205 206 206 209 211 211 213 215 219 223 228 230 236 239 240 245 239 241 255 256 259 262 269 272 275 279 281 283 280 278 277 279 284 285 287 288 290 294 296 296 300 302 302 303 303 304 304 309 312 312 314 316 318 319 318 319 320 322 323 324
63 74 80 84 85 92 95 90 87 77 51 35 32 39 33 57 61 63 59 55 51 23 13 48 79 98 110 113 85 62 59 82 90 99 106 104 94 81 65 37 21 22 52 69 72 70 75 81 76 70 74 74 66 62 51 38 48 60 54 49 57 73 89 100 120 128 116 113 91 93 123 133 141 156 171 183 193 194 186 181 170 159 146 117 97 120 141 155 156 149 156 147 137 122 112 98 92 86 84 96 95 81 76 95 100 105 107 99 98 99 97 99 104 101 97 98 94 91 90 91 91 91 90 91 94 84 83 91 92 95 83 68 67 51 28 33 59 58 52 36 27 30 24 20 35 45 64 69 65 66 81 95 98 100 102 93 91 89 103 121 127 125 127 135 145 153 159 159 162 156 157 155 155 157 164 168 172 175 179 182 184 183 183 184 183 184 182 179 182 186 189 191 194 201 204 205 212 224 227 233 238 242 245 249 252 258 265 262 264 262 255 244 231 223 219 217 218 221 221 216 212 207 204 202 201 203 206 206 216 244 266 271 276 279 276 273 264 260 257 254 256 249 237 220 210 201 195 193 193 196 201 204 207 215 227 248 266 288 309 319 326 332 335 337 340 340 325 314 306 310 309 309 310 310 304 301 300 301 300 298 298 295 284 275 272 272 271 269 263 261 260 255 247 236 231 226 226 224 221 213 202 202 200 196 196 194 193 194 194 194 195 193 191 188 186 186 187 187 182 177 177 175 175 170 172 176 176 178 181 184 187 187 186 185 184 183 179 179 176 176 175 175 174 175 176 175 168 151 150 147 149 149 148 149 149 150 148 147 147 149 149 150 149 149 149 149 149 149 148 150 150 149 150 150 151 151 154 154 152 150 152 154 153 154 154 156 156 156 155 156 158 160 164 163 163 162 161 161 160 159 159 158 159 160 160 160 162 163 164 165 168 170 170 169 171 171 170 172 173 172 172 171 170 168 167 168 168 167 168 171 172 171 172 172 171 171 170 170 170 173 173 172 173 174 176 178 181 180 179 178 179 180 181 185 190 187 180 178 179 188 199 212 219 212 203 205 197 194 192 191 199 224 244 238 250 269 283 288 271 244 222 210 205 205 204 197 194 181 176 176 177 178 177 176 177 177 178 179 180 182 181 181 182 183 184 187 189 188 192 199 207 214 211 199 194 190 190 193 194 196 196 197 197 198 200 201 204 205 205 207 209 209 210 208 208 211 212 211 213 219 235 248 255 258 259 254 251 253 262 289 321 335 327 317 305 297 286 286 287 285 279 263 246 247 240 231 232 236 249 275 282 280 263 257 253 246 244 243 244 242 244 245 247 248 250 250 257 259 255 257 258 259 265 266 272 278 280 280 281 284 292 301 301 296 292 294 298 297 296 294 291 285 282 286 289 293 301 312 327 334 331 323 314 294 297 311 319 327 327 327 325 323 316 314 304 289 279 273 268 266 265 262 259 258 262 268 266 257 258 254 259 266 272 270 264 260 266 265 266 268 258 249 242 236 233 229 228 228 227 226 225 224 222 223 226 227 228 228 230 232 230 228 226 229 229 222 229 237 231 219 211 208 206 207 206 211 211 210 214 219 223 225 231 234 241 244 244 246 245 238 255 259 261 263 272 279 281 284 281 277 279 281 280 278 280 283 285 288 289 292 294 295 298 300 302 302 302 303 305 308 312 312 314 317 319 321 322 321 320 322 326 327
64 73 82 98 102 100 98 85 70 62 40 40 39 43 51 65 67 71 67 55 52 34 20 54 82 98 110 113 86 62 64 85 100 113 125 127 102 83 72 49 17 27 57 71 77 73 72 81 81 74 77 75 71 71 54 45 59 63 54 57 68 79 94 111 129 133 140 125 106 109 131 134 141 170 187 193 197 199 191 187 170 150 143 112 107 137 161 172 170 164 158 144 134 124 121 108 90 83 91 98 97 86 80 99 110 119 118 108 108 110 107 106 102 100 100 104 101 100 100 98 97 93 91 89 89 83 85 92 93 92 85 75 76 65 48 36 59 61 67 61 50 59 80 75 59 25 27 38 53 66 81 95 110 118 106 95 94 89 105 120 118 125 117 125 137 140 147 152 152 153 151 151 154 156 162 165 170 173 175 179 180 180 178 179 178 179 179 177 176 182 183 183 186 193 198 202 209 217 221 229 236 237 239 243 249 260 261 257 257 263 261 253 241 226 216 208 208 209 209 208 203 201 200 201 201 202 202 204 221 249 261 269 272 273 272 263 260 255 251 250 247 244 239 224 210 201 197 194 195 196 199 201 210 220 233 257 276 296 313 320 325 329 332 336 338 333 325 314 306 301 303 306 311 310 308 305 302 301 300 300 299 297 294 282 274 269 267 269 267 262 259 254 247 239 234 227 219 219 216 207 200 203 200 196 196 194 192 191 190 190 190 190 187 185 185 182 180 182 179 176 174 173 171 170 173 178 176 178 182 183 185 184 182 182 182 181 178 179 177 175 173 170 171 173 174 168 151 150 148 148 147 147 147 147 147 147 149 150 150 151 150 150 149 150 149 149 150 151 150 151 151 150 151 152 154 152 153 154 152 150 151 153 153 154 154 155 155 156 157 158 158 160 163 164 163 164 163 161 161 159 158 159 160 159 159 161 163 163 164 164 165 166 168 170 170 171 172 172 175 174 173 172 171 170 170 168 167 168 169 172 171 171 173 173 171 171 171 171 172 174 174 174 174 174 179 184 184 183 182 179 179 182 183 184 184 183 180 179 184 188 197 205 208 208 207 207 202 201 194 193 200 219 229 220 233 253 259 270 257 232 212 203 201 205 204 197 190 181 176 176 177 178 176 177 177 178 179 180 180 180 181 181 182 182 183 186 188 190 192 197 202 205 202 199 196 194 191 193 193 194 197 197 197 199 199 199 202 205 207 210 214 223 232 225 215 213 215 213 213 216 218 226 233 236 237 235 236 244 263 286 315 329 328 325 319 313 297 286 277 269 259 250 249 248 237 230 231 238 257 273 281 269 261 255 250 247 245 244 245 245 246 248 248 248 250 250 257 259 257 262 260 262 266 265 269 272 274 279 282 290 301 306 300 295 297 301 307 310 310 303 298 291 284 282 285 289 292 302 322 334 333 325 317 302 289 303 322 330 328 324 319 317 304 302 291 283 277 271 269 273 274 271 260 253 253 260 259 259 268 255 257 265 266 269 262 257 266 272 274 270 262 247 238 234 232 228 228 227 224 224 223 222 222 224 225 228 230 231 234 236 239 237 233 229 229 235 240 236 228 224 213 207 206 205 208 212 212 213 218 223 227 231 236 241 244 245 245 247 249 244 250 259 262 266 271 278 282 279 276 278 282 284 284 280 281 285 288 290 290 291 293 294 297 297 299 300 302 305 306 308 309 312 315 317 321 322 324 322 322 323 328 330
65 79 101 114 114 102 92 73 47 41 45 55 50 51 62 75 74 76 76 59 53 43 20 54 82 100 113 116 88 61 70 91 107 133 151 145 110 83 73 56 23 36 67 81 84 80 73 79 84 86 83 78 78 77 62 67 69 68 56 68 76 84 104 124 135 140 154 141 119 108 122 128 150 175 190 195 200 205 193 181 161 139 124 102 113 148 165 173 172 162 153 143 131 127 128 109 85 93 104 101 98 86 79 98 117 123 120 113 115 119 110 106 101 103 109 108 106 107 105 101 100 96 93 89 87 82 84 93 94 93 86 81 84 81 65 39 68 69 66 70 64 62 78 88 82 51 27 38 53 67 85 97 114 123 117 103 98 91 105 103 106 113 107 117 124 130 138 139 141 149 149 149 153 155 160 161 163 166 170 173 176 176 174 176 175 173 175 177 178 180 179 181 185 190 195 204 210 218 228 234 241 241 244 246 250 257 256 248 246 251 254 254 248 240 227 215 206 202 200 201 201 199 198 198 199 203 202 205 222 245 255 260 264 264 259 255 251 250 247 244 243 240 237 225 213 207 201 191 192 197 203 207 218 228 244 262 279 299 313 319 323 327 332 336 338 333 320 309 302 293 293 301 306 306 303 300 297 300 300 296 292 290 288 280 268 261 260 261 257 252 249 246 244 243 235 230 224 213 200 197 199 202 198 195 192 192 192 192 190 188 186 186 184 182 183 182 176 177 177 173 173 172 170 171 174 176 178 179 182 183 182 183 180 181 179 178 177 177 176 175 174 171 169 165 165 150 147 149 148 146 147 149 148 147 148 146 148 150 148 148 149 150 151 150 150 151 151 152 151 152 152 152 152 153 154 152 153 153 152 154 152 154 155 155 155 156 157 157 158 160 161 161 164 163 163 164 163 162 162 160 160 160 160 159 161 162 163 161 166 165 167 167 168 169 171 172 173 175 176 174 174 174 172 169 171 169 168 168 170 173 172 172 174 174 173 172 173 171 172 174 175 175 175 176 180 189 196 193 188 182 180 182 185 185 181 181 180 180 182 184 189 190 193 194 196 197 195 196 195 194 198 208 216 213 223 239 241 251 244 227 210 203 201 202 202 196 189 184 178 177 177 176 176 177 178 178 179 178 180 182 183 183 185 183 184 185 188 189 191 194 201 203 199 198 196 194 194 194 194 195 199 198 198 198 200 200 202 204 209 213 218 234 256 244 222 220 220 216 215 214 216 219 223 225 225 233 247 253 252 265 283 301 308 308 303 293 278 267 258 251 244 242 238 236 233 230 231 237 256 271 268 259 263 261 253 249 247 245 246 247 248 249 251 248 250 254 266 267 270 269 260 262 269 273 273 278 277 277 277 289 300 309 305 297 298 302 311 315 320 311 301 294 289 285 278 282 285 293 310 327 333 330 324 316 297 294 312 323 325 323 316 311 294 287 283 279 274 273 274 276 275 269 265 264 258 252 251 259 263 252 249 251 259 268 263 253 255 266 270 262 254 247 241 233 230 227 227 225 225 224 223 221 222 224 225 230 234 238 239 242 252 237 233 241 257 253 251 248 236 226 213 205 205 209 212 214 215 218 221 226 230 235 241 243 245 246 247 249 253 252 244 260 266 268 270 274 276 274 275 280 283 284 283 279 279 287 289 293 291 293 293 293 293 296 296 300 303 306 307 308 312 314 315 319 321 323 325 325 325 326 329 331
75 93 114 117 117 96 82 62 38 44 61 61 64 62 78 86 80 80 73 59 53 43 24 56 83 96 112 114 89 67 80 99 124 148 158 157 127 101 80 51 32 45 70 87 89 92 82 80 91 100 89 85 85 79 72 71 74 77 62 74 81 92 116 138 143 145 149 149 135 107 106 121 151 176 190 195 201 204 193 174 150 126 110 99 117 146 161 172 171 158 152 147 136 131 129 107 94 109 115 110 102 86 77 98 117 120 120 118 120 123 115 112 104 102 111 117 114 112 108 105 102 96 90 88 86 81 83 90 96 95 87 87 87 87 81 50 65 76 71 73 80 75 75 88 82 51 16 27 57 65 70 90 105 113 110 104 100 90 96 94 98 102 104 115 121 120 125 129 136 145 145 149 151 154 158 162 164 166 167 172 172 170 171 173 173 174 175 173 178 183 181 194 205 209 212 217 224 231 239 243 243 245 245 247 249 248 245 239 237 237 239 242 240 235 227 217 205 199 198 198 197 196 197 197 198 198 199 204 220 239 244 252 255 254 249 248 244 242 241 238 239 233 232 227 217 207 203 190 189 199 211 215 231 247 263 274 284 305 318 323 323 327 332 336 333 328 325 316 303 291 288 293 297 296 294 292 290 293 294 288 282 278 275 266 254 251 251 253 246 244 243 235 238 239 231 224 220 209 196 192 199 202 197 193 191 190 190 189 188 186 185 183 182 179 179 178 176 174 172 171 171 170 170 172 174 174 178 178 180 181 181 180 178 179 177 176 175 175 175 174 174 172 169 162 149 148 148 148 147 145 146 148 147 148 147 148 148 150 150 150 151 152 152 151 151 152 154 152 152 153 153 155 152 153 154 152 153 153 153 153 153 154 154 154 154 156 157 159 158 160 161 161 162 162 163 165 163 162 160 160 160 160 161 161 162 165 165 165 168 169 169 171 169 170 170 173 174 175 176 175 175 174 173 170 170 170 169 169 171 173 175 175 177 177 176 174 174 172 172 172 174 174 176 179 183 202 207 198 191 185 181 187 190 192 186 185 180 181 182 183 184 184 187 187 189 191 191 192 192 194 196 201 205 206 213 222 223 231 244 227 210 199 198 201 199 194 189 185 179 177 177 178 176 175 178 180 181 181 181 183 184 185 186 187 187 188 188 186 190 193 196 197 199 198 196 196 195 196 197 197 199 199 199 199 200 201 203 206 209 214 220 231 238 233 227 231 230 220 218 217 218 219 221 223 224 232 246 250 239 243 257 267 272 277 276 272 262 255 255 248 241 240 236 235 233 232 233 233 241 252 255 254 254 255 252 249 249 248 249 251 248 249 251 252 253 250 257 265 271 268 261 267 277 279 277 288 289 282 280 288 293 299 296 292 294 296 304 315 321 314 302 294 293 288 280 274 278 289 306 324 335 336 329 320 303 286 293 312 320 325 322 309 290 285 283 277 278 278 276 279 275 272 268 269 266 256 247 248 247 246 246 246 253 262 255 249 252 267 273 265 256 256 249 236 230 228 225 224 223 223 223 221 222 223 227 232 238 248 239 242 252 257 264 273 279 272 264 242 229 223 210 203 206 212 213 219 220 221 224 230 235 239 244 244 246 249 250 253 259 258 247 254 264 266 264 266 267 273 277 279 284 285 285 281 280 287 290 295 295 293 294 295 295 295 296 303 306 307 308 309 313 316 316 318 321 324 327 328 327 326 329 332
86 108 114 111 101 81 61 45 41 46 61 77 74 73 90 86 80 80 73 66 47 30 43 60 82 98 115 112 85 69 87 117 134 153 165 171 147 115 90 61 34 47 72 90 93 100 91 80 97 112 104 97 92 84 82 81 83 82 70 80 89 104 119 139 145 138 151 152 130 108 109 126 154 182 193 192 193 190 183 170 152 124 111 103 121 142 164 176 170 163 158 160 140 124 117 100 113 116 117 110 106 92 81 101 106 113 119 119 123 125 125 120 113 107 112 124 122 119 113 110 102 92 89 87 87 82 85 90 97 97 93 91 93 92 89 65 70 77 78 76 80 75 75 81 76 56 14 26 56 61 71 79 94 104 91 96 92 91 95 104 105 106 107 115 119 119 123 120 128 140 145 153 153 154 156 159 163 167 167 167 167 165 168 171 170 172 174 171 177 181 189 209 218 225 224 226 231 236 240 237 234 233 236 238 238 240 236 233 229 229 229 229 228 224 222 212 200 197 195 196 195 195 195 197 196 196 198 203 216 232 237 241 243 243 243 245 238 235 234 235 235 231 225 221 216 208 199 191 190 201 213 218 237 254 273 288 305 317 318 323 326 331 335 336 334 333 330 321 304 287 282 281 285 286 289 286 283 282 279 277 273 269 261 248 237 242 242 242 236 237 234 230 227 228 226 221 213 198 189 190 193 198 198 190 188 188 190 187 186 184 182 180 177 175 177 176 174 173 172 171 169 168 171 172 175 175 176 176 178 178 178 179 177 177 174 173 173 173 172 172 171 171 169 149 146 147 149 146 147 147 147 146 146 147 148 149 151 150 151 152 152 151 150 152 153 152 153 153 154 153 153 155 153 155 154 153 154 155 154 153 154 155 154 156 155 156 157 159 160 160 162 162 162 165 164 164 163 163 161 160 160 161 161 163 164 167 166 167 169 170 172 172 171 170 172 173 175 176 176 176 174 174 173 171 169 170 170 170 172 174 177 179 179 180 180 180 178 177 175 173 174 176 177 180 188 202 205 195 188 182 183 191 194 196 189 184 181 182 183 183 183 183 185 184 186 187 188 189 190 192 196 199 200 202 206 211 223 231 237 226 208 196 194 197 197 195 190 186 179 179 179 179 176 176 178 180 180 182 184 183 186 188 193 192 190 189 191 188 189 193 197 202 202 199 196 196 197 195 198 196 196 199 200 199 202 201 203 205 209 212 219 227 225 226 226 231 232 225 223 224 222 218 219 221 221 224 227 231 230 234 241 244 255 270 284 287 273 263 269 261 249 244 240 237 236 235 236 238 236 239 245 246 246 249 253 251 248 247 249 251 252 249 253 256 259 253 254 257 257 260 262 271 283 284 281 289 295 294 288 283 286 288 288 295 297 299 303 313 321 314 300 297 296 294 290 279 275 288 303 322 335 339 331 320 309 296 287 298 316 329 335 321 307 300 295 287 284 281 280 283 284 281 278 278 273 259 257 254 245 244 242 243 245 245 244 247 253 269 279 274 271 269 259 238 229 227 225 225 224 223 221 222 223 223 227 232 238 248 250 252 267 284 288 293 299 293 268 232 217 210 206 205 207 216 218 220 225 229 230 230 235 239 244 247 248 251 252 259 266 263 257 249 255 254 256 264 270 278 282 284 286 286 285 282 279 284 289 295 296 296 295 297 300 298 300 304 306 308 310 312 314 316 317 320 323 326 327 329 329 328 331 333
100 116 111 97 85 62 47 55 61 50 73 91 74 73 90 95 93 88 77 77 60 38 53 62 79 100 113 106 76 75 105 133 151 161 176 180 161 128 99 75 45 38 65 90 96 102 92 87 107 122 118 106 104 96 95 99 103 99 76 83 96 113 120 132 131 129 144 146 140 134 125 136 165 186 187 188 189 188 185 178 160 138 129 110 124 152 171 181 174 166 163 161 145 116 104 108 125 122 114 110 108 95 89 104 108 113 114 118 128 127 126 124 125 123 113 117 123 123 119 115 103 95 90 86 85 82 82 87 98 104 102 97 92 88 82 59 79 77 78 76 83 86 82 71 59 39 14 37 52 62 74 81 86 90 84 84 81 86 98 103 101 97 102 106 112 115 120 127 130 142 150 155 155 154 156 156 162 165 165 166 167 167 168 168 169 171 170 170 174 180 197 214 222 224 222 223 230 233 232 228 226 222 220 224 224 230 229 226 224 222 222 221 219 216 213 206 197 194 192 192 194 193 194 194 194 196 198 205 215 226 231 233 231 230 233 235 235 230 230 230 230 225 218 214 207 201 196 192 189 199 208 214 234 246 262 288 305 317 325 330 333 335 336 336 332 332 329 319 303 288 281 273 271 275 280 278 274 273 270 269 265 260 247 235 224 227 229 232 230 228 226 224 220 218 219 214 204 191 185 188 191 194 193 191 185 185 185 184 183 183 179 176 175 174 171 173 172 170 171 169 167 168 171 172 174 176 171 174 175 177 178 178 175 176 173 172 170 168 167 168 172 169 151 146 146 147 148 147 146 146 147 147 147 148 149 149 149 151 152 153 153 152 154 154 154 153 153 153 154 154 155 153 152 156 156 155 154 155 154 153 154 154 155 156 156 155 156 157 159 161 162 163 164 164 164 163 164 163 162 162 162 161 162 164 167 168 169 170 171 174 174 174 173 172 172 173 173 177 176 175 176 175 173 173 170 170 171 169 173 175 177 180 181 182 187 188 182 179 177 175 176 176 178 182 191 199 200 198 189 182 185 194 197 195 186 185 183 185 188 184 184 184 185 185 185 187 187 188 189 191 194 195 197 202 206 211 210 216 225 223 207 196 192 192 194 192 189 185 179 178 179 180 178 177 176 179 180 181 183 184 188 196 204 198 194 196 193 191 190 194 199 205 205 200 196 197 197 197 198 198 197 199 200 201 201 202 204 204 208 211 216 219 220 222 226 233 235 229 225 226 224 222 220 221 224 225 225 227 229 230 235 242 255 283 305 297 282 270 272 267 257 254 250 242 239 237 239 236 238 237 240 242 242 249 257 251 248 247 249 251 255 257 260 266 274 267 263 260 256 258 267 277 284 285 285 290 292 294 290 283 285 292 297 306 307 310 312 318 322 312 303 302 299 300 303 295 281 276 292 310 323 329 325 317 315 309 291 289 310 323 330 324 318 315 306 298 288 284 285 287 287 284 285 285 274 267 281 279 256 241 240 242 241 240 242 249 261 275 279 276 270 262 254 236 229 227 226 224 222 221 221 220 220 224 227 232 240 249 255 257 278 288 294 301 307 297 264 234 211 203 204 205 208 213 217 224 232 235 234 235 238 242 243 246 249 252 259 266 271 269 267 257 252 253 259 264 272 279 284 288 289 290 289 287 280 281 288 293 296 296 297 298 300 301 304 305 307 310 311 313 316 317 319 323 327 328 329 330 331 331 333 334
117 117 107 84 68 49 59 81 73 50 95 91 84 83 96 101 104 96 88 79 63 49 52 63 82 102 116 102 81 94 122 147 150 166 181 184 167 136 103 81 54 38 62 85 101 104 99 95 117 130 125 120 122 114 115 112 119 110 84 84 110 127 121 124 127 130 137 151 159 164 151 153 173 180 183 187 189 189 184 181 168 150 136 120 143 161 175 179 172 168 166 158 150 114 103 122 123 118 114 113 110 97 93 104 108 112 113 119 124 126 125 129 130 130 125 121 134 131 129 126 110 101 91 89 84 83 87 100 105 109 109 106 97 93 82 59 79 90 86 90 83 82 78 67 41 20 15 39 49 68 78 84 83 80 81 79 72 86 91 93 97 109 112 114 119 123 129 138 138 143 151 153 154 152 152 154 158 163 163 166 163 164 166 165 167 169 170 171 177 183 199 211 220 220 219 220 224 224 224 223 220 216 207 204 214 217 218 219 216 215 213 211 207 203 204 200 195 192 191 192 191 190 190 192 191 193 195 203 214 218 222 222 221 223 226 227 231 224 227 226 224 219 213 209 201 196 194 192 188 194 199 213 234 246 262 285 305 316 325 332 334 335 333 326 318 317 319 312 302 290 281 274 267 262 268 273 270 265 262 258 256 246 237 225 212 213 219 221 225 220 218 215 212 210 207 202 193 184 181 184 187 188 184 187 183 180 180 180 180 179 177 175 175 174 171 171 170 167 166 165 166 166 170 171 173 175 173 174 175 176 175 174 172 173 173 169 168 163 163 167 169 154 148 146 150 148 147 146 146 146 146 148 147 148 150 150 151 152 154 153 152 155 156 155 154 153 153 154 155 154 155 154 155 157 157 158 156 155 156 157 156 155 155 155 156 156 158 158 160 162 163 163 163 165 165 165 166 164 162 163 163 161 163 164 166 166 169 170 172 173 173 174 174 173 174 173 175 178 177 176 178 177 176 175 174 173 171 170 172 175 178 179 182 185 188 187 183 182 179 177 181 179 177 180 189 194 194 190 187 184 187 192 193 190 189 186 185 185 189 185 185 183 182 184 187 188 189 189 189 192 194 195 197 200 202 202 203 203 211 215 203 192 189 187 189 188 187 184 179 179 179 178 178 178 176 178 180 181 183 185 192 211 229 216 198 196 200 196 193 193 197 203 204 200 197 196 196 199 198 199 199 200 200 202 202 202 203 206 209 211 213 214 216 221 231 231 229 225 224 222 223 224 224 222 226 227 226 226 228 230 232 238 250 272 282 275 262 253 255 252 254 258 257 248 244 243 240 239 242 240 238 238 240 249 257 257 254 252 252 252 256 261 269 283 299 296 283 269 260 256 262 276 282 281 288 285 285 288 292 293 290 297 303 307 309 313 315 317 317 310 308 310 306 307 313 306 292 274 278 295 311 317 322 320 318 312 292 282 302 321 323 318 315 316 311 298 292 287 287 287 285 282 283 283 276 284 295 282 259 244 239 239 236 236 240 245 257 264 269 261 254 248 244 232 227 226 225 223 220 221 220 220 220 224 229 233 240 249 259 270 278 288 295 302 302 278 250 225 208 206 206 206 209 214 222 228 233 236 237 239 239 241 244 248 253 259 265 269 270 273 273 267 259 261 267 273 278 280 283 288 289 291 291 291 285 281 288 292 294 296 298 300 302 305 306 308 308 311 313 314 316 318 321 325 329 330 332 334 335 334 334 336
120 115 103 75 59 62 59 81 73 79 102 99 98 91 104 107 108 103 98 85 72 65 57 68 86 101 112 102 94 112 137 153 150 173 180 179 164 139 106 90 63 38 47 76 101 111 111 101 119 138 137 131 133 126 127 119 127 115 91 88 111 120 122 132 135 136 142 161 170 176 170 161 176 181 183 185 187 189 186 181 177 159 143 146 155 169 182 182 175 172 167 162 148 113 119 132 126 117 116 114 109 100 93 100 106 119 122 123 127 135 136 138 140 137 135 133 135 138 138 135 125 109 95 90 87 87 93 103 108 112 111 106 97 93 85 64 80 95 91 92 87 75 68 67 36 15 29 32 42 62 77 82 79 77 81 71 66 80 93 102 113 122 129 132 137 139 135 142 142 146 150 151 151 149 149 153 154 158 162 163 163 163 165 164 167 167 171 179 186 188 199 204 211 213 217 214 216 214 216 214 209 209 206 201 198 204 212 212 211 208 205 204 198 195 195 194 193 192 191 191 189 190 190 190 189 192 192 193 200 208 209 209 212 222 222 217 224 220 226 228 221 214 209 205 197 190 189 188 189 194 199 213 228 246 267 284 300 312 320 329 330 327 319 311 307 305 303 300 295 291 282 271 265 257 256 262 265 260 255 250 239 232 226 219 208 206 215 215 216 212 211 210 206 203 198 194 184 180 178 180 181 183 181 182 179 175 176 174 175 176 174 173 172 172 171 175 172 168 169 166 165 166 169 172 171 171 172 172 172 172 172 173 170 169 168 166 166 162 161 165 151 149 149 150 149 146 145 146 146 146 146 147 148 147 149 150 152 153 153 154 154 155 156 155 152 154 153 154 155 155 155 156 156 157 158 158 156 157 158 155 154 154 155 155 156 157 159 160 161 162 164 164 165 164 165 166 167 165 162 162 162 161 162 163 165 167 169 169 171 169 172 173 173 174 174 174 175 177 180 182 181 181 179 178 175 175 172 172 172 175 177 180 181 185 186 185 184 180 179 182 184 178 178 180 184 188 190 188 187 186 188 190 191 190 189 187 188 187 189 187 185 184 184 185 186 187 189 190 189 192 194 195 196 200 198 198 198 196 196 196 192 189 187 185 185 186 184 181 180 179 178 179 178 179 180 179 180 180 184 187 191 206 226 223 211 208 207 201 194 193 198 201 201 199 199 200 201 200 200 199 201 201 201 204 203 204 206 208 209 210 211 212 214 218 224 225 224 224 224 225 224 227 226 226 226 227 225 225 228 228 230 233 239 251 251 251 248 247 249 252 265 269 268 257 246 246 243 243 245 244 242 238 240 248 254 261 258 259 258 255 259 270 289 312 330 330 308 280 264 259 258 265 271 277 278 279 283 289 293 295 294 294 300 306 310 313 314 312 312 315 318 320 317 311 318 316 302 284 269 280 295 310 318 320 317 307 288 275 292 316 324 313 309 313 313 306 300 287 286 286 282 277 276 278 280 284 282 267 251 242 239 236 235 234 235 234 240 243 246 242 238 235 232 228 227 224 223 223 222 221 220 220 219 224 230 234 244 261 270 277 283 291 297 305 288 261 239 213 208 206 205 207 209 216 221 226 231 233 236 239 241 243 251 255 261 266 264 271 273 274 271 265 264 265 269 278 279 283 285 285 288 291 294 293 288 283 285 290 293 297 302 304 306 309 310 309 310 312 313 316 318 321 325 326 330 333 334 337 337 336 335 336
122 110 96 75 59 62 82 94 73 79 98 105 108 97 110 113 113 108 109 96 81 74 58 74 91 107 114 107 107 125 145 156 160 179 180 178 162 139 111 90 78 52 43 69 94 111 121 113 122 144 149 142 139 132 123 115 125 126 105 90 107 129 142 149 144 147 155 165 172 177 175 170 178 182 188 193 194 195 198 193 184 171 167 158 165 178 187 184 181 174 171 166 137 109 134 148 138 121 115 113 106 96 93 92 106 120 125 125 134 144 145 148 145 144 146 150 154 155 158 153 143 125 110 95 90 92 90 99 108 112 111 112 107 104 94 70 79 92 95 89 82 82 69 53 23 32 63 65 65 59 60 61 61 65 62 64 81 87 91 100 112 126 139 145 149 147 143 145 146 147 149 150 150 148 149 153 153 153 159 159 161 161 163 165 165 170 179 188 190 187 194 200 204 207 213 211 207 204 205 201 204 208 206 202 193 195 201 203 203 202 201 196 191 189 189 190 190 188 187 187 187 186 188 189 188 190 191 192 196 197 198 201 208 216 216 211 216 217 223 224 216 210 205 203 194 188 184 188 189 191 201 213 226 245 265 282 302 309 315 320 323 315 306 301 298 296 293 290 289 284 279 268 263 256 252 249 252 252 248 241 226 224 219 211 206 202 208 209 208 207 205 202 198 195 190 184 180 176 176 176 178 176 175 176 177 174 174 172 171 172 171 172 172 171 172 172 172 170 169 166 165 166 168 170 170 170 171 172 169 168 169 168 166 164 164 163 161 159 155 151 146 146 147 149 148 146 147 146 147 146 148 148 150 149 149 150 153 154 154 154 154 155 155 154 154 155 155 155 156 156 155 157 158 159 159 160 159 158 158 156 154 153 155 155 156 157 158 161 162 163 164 164 165 165 165 165 165 164 164 165 163 162 163 164 165 167 169 168 169 170 170 172 173 175 175 177 178 181 186 191 195 187 183 179 178 176 174 172 173 174 176 179 181 184 185 184 184 182 183 185 182 178 178 178 182 185 185 188 187 186 187 191 192 191 191 191 195 191 191 188 187 186 186 186 186 189 189 190 190 193 190 192 193 196 196 197 195 193 191 190 188 186 185 183 182 183 181 180 178 179 180 180 179 180 181 178 179 180 182 185 190 205 232 240 230 238 232 215 199 193 195 197 197 199 200 200 201 201 201 202 202 202 203 203 203 205 204 206 209 210 212 213 213 216 219 221 220 225 226 228 227 229 229 230 229 230 227 229 231 231 231 232 235 240 243 243 242 245 253 262 278 281 275 254 252 249 246 248 245 244 242 243 242 242 253 262 261 257 257 258 260 276 293 315 334 342 320 290 267 261 261 261 264 265 270 277 279 284 289 292 293 292 295 302 306 310 310 306 305 312 318 321 319 316 318 317 305 292 277 270 285 302 303 309 319 311 289 273 278 301 316 306 297 308 313 311 299 284 285 283 279 273 270 268 268 266 261 256 247 243 237 233 233 234 234 232 233 232 232 231 230 230 229 226 225 225 223 223 222 221 220 218 221 224 229 236 254 261 269 276 286 295 300 304 279 249 223 210 206 205 207 211 210 215 222 227 230 233 234 237 241 246 256 260 265 267 268 271 272 271 269 268 268 268 273 278 280 285 288 288 291 293 293 293 289 284 283 288 294 302 304 307 310 313 314 312 315 314 314 317 319 324 327 327 332 335 338 338 338 338 337 338
122 110 96 73 74 91 94 96 92 89 95 108 108 98 107 120 121 113 114 101 88 81 57 77 96 116 117 119 121 132 151 157 160 174 182 186 169 142 114 91 84 70 47 56 77 108 123 124 133 144 147 146 150 137 123 127 145 144 129 118 138 154 156 155 153 167 176 178 176 177 180 179 185 186 194 199 200 207 208 206 193 193 180 160 170 185 191 190 186 176 169 157 120 125 153 151 137 117 114 113 115 114 104 101 110 121 122 123 141 150 146 152 151 154 161 175 179 171 174 171 161 140 123 99 94 92 90 99 105 112 109 110 108 100 89 70 78 88 87 79 77 82 68 38 18 47 76 85 86 81 71 66 60 60 71 77 81 84 94 105 121 139 145 154 154 154 151 147 147 149 150 151 151 146 146 150 148 150 155 156 157 161 164 164 165 175 186 189 188 186 192 198 202 204 207 205 202 197 196 205 207 204 201 196 195 188 188 191 197 197 193 189 185 185 186 186 186 186 185 186 186 188 188 186 188 189 190 192 193 193 194 197 199 205 211 206 208 214 217 216 209 203 198 194 194 188 184 185 186 193 209 220 237 252 270 284 293 300 309 311 311 304 298 296 295 294 291 288 286 282 274 270 265 253 251 248 245 243 238 226 220 217 214 206 204 199 201 204 202 199 197 193 189 188 182 177 174 173 174 174 173 171 171 173 176 174 172 170 169 170 170 169 170 171 169 173 173 171 170 166 164 166 168 167 166 168 167 169 170 167 165 165 161 161 159 158 156 152 146 145 144 146 148 147 146 146 146 144 147 147 148 150 152 152 151 152 153 154 154 154 156 155 157 157 156 154 154 155 155 156 157 157 158 159 160 161 160 159 158 157 156 156 157 158 157 159 160 160 162 164 165 164 166 165 165 166 165 164 165 167 165 163 163 165 165 165 166 167 167 170 172 174 173 176 177 179 182 188 196 201 207 195 191 187 185 179 175 174 174 174 176 178 180 182 186 185 185 184 184 184 180 183 184 180 181 183 185 187 188 189 189 192 194 195 195 197 199 198 194 190 190 187 188 186 186 189 189 192 192 192 192 195 196 198 198 199 197 193 191 189 185 185 184 182 182 181 180 179 178 179 180 180 180 180 181 179 179 180 181 185 189 203 229 244 243 246 241 223 203 196 197 198 199 200 201 201 202 203 204 203 202 203 205 205 206 205 206 209 210 211 213 214 214 216 219 220 223 232 234 234 236 235 234 232 233 232 231 233 233 232 234 234 235 235 241 240 240 245 256 265 269 279 283 270 262 255 246 248 252 253 254 258 248 242 248 256 257 254 255 259 265 276 288 307 327 338 320 286 267 263 262 262 262 264 264 270 272 273 280 287 289 291 290 295 302 306 305 300 304 312 314 313 310 310 310 316 314 302 290 275 269 278 284 301 312 312 303 275 269 287 304 299 295 304 306 298 287 280 283 281 277 275 272 265 263 259 255 246 240 238 234 232 229 232 232 229 231 228 228 227 226 228 226 226 225 225 223 223 223 220 219 219 222 225 230 242 248 253 261 268 277 280 291 291 268 243 215 205 205 205 209 211 212 219 225 229 233 236 237 241 246 249 256 261 266 269 270 270 270 271 269 269 270 270 275 279 281 285 288 288 290 293 292 293 293 286 284 287 294 300 305 308 311 313 313 315 316 316 316 318 320 326 330 331 334 337 338 339 340 340 339 341
120 107 93 78 91 103 99 98 102 101 94 113 112 104 106 123 128 116 119 108 93 82 57 72 92 115 116 126 130 142 158 161 159 172 183 189 173 149 125 111 95 87 69 51 64 96 121 129 140 147 152 156 163 145 131 144 155 157 152 147 155 170 174 166 170 182 180 179 180 185 193 189 192 195 198 208 218 225 222 214 211 199 184 166 177 186 189 192 193 182 164 145 128 144 156 147 135 121 115 123 127 123 111 98 109 122 124 120 133 148 152 158 164 168 175 184 182 181 184 182 173 150 131 99 94 97 95 101 104 103 103 98 91 83 75 68 80 83 80 77 74 72 47 23 18 51 76 88 93 85 84 76 76 84 96 94 89 90 103 112 120 137 150 157 158 153 152 148 149 151 152 151 149 145 144 145 146 149 154 157 157 160 160 162 165 178 187 193 188 185 191 199 198 198 200 197 192 193 202 203 203 201 198 196 194 191 184 188 191 190 186 184 182 183 182 182 184 185 185 186 186 185 186 188 187 190 190 190 193 192 192 195 194 190 191 192 200 209 213 205 198 203 198 194 189 182 181 184 189 204 220 234 249 262 272 276 283 290 298 298 295 295 295 293 292 292 289 287 281 281 275 268 261 253 248 244 242 231 224 218 216 212 209 205 201 199 195 199 197 194 189 186 180 176 174 174 172 172 172 170 170 169 170 173 175 173 170 167 165 166 165 164 166 168 169 170 171 170 170 168 162 165 166 167 165 165 165 163 166 163 163 162 161 157 156 153 153 149 146 148 148 146 147 146 145 148 147 147 148 149 150 150 152 152 151 152 153 154 155 155 155 157 156 156 156 155 157 157 157 156 157 158 160 160 160 160 161 161 159 158 157 156 156 158 157 160 159 160 162 164 164 164 166 167 167 166 166 166 165 166 166 165 163 163 164 165 166 168 168 170 174 174 175 178 180 182 185 190 197 198 196 193 190 188 185 179 177 174 174 175 179 184 184 183 184 186 187 186 185 182 181 185 185 181 180 183 183 185 190 191 191 193 197 201 204 208 212 213 205 195 191 187 188 188 188 188 192 193 193 194 194 195 196 198 201 202 201 196 191 189 188 187 184 182 182 180 180 179 179 179 179 179 180 180 181 180 180 181 182 184 188 198 214 231 242 241 226 211 201 201 200 198 200 202 203 204 205 206 206 206 205 205 205 206 208 207 209 211 210 213 215 217 217 218 222 225 234 250 255 253 258 248 240 241 238 237 239 239 239 242 242 240 239 237 236 238 239 247 257 259 265 285 292 270 262 255 253 255 267 271 269 266 261 253 245 248 251 251 253 257 261 274 286 301 314 319 307 281 271 272 268 268 266 267 267 268 270 268 274 279 283 285 283 288 294 300 301 297 302 303 303 308 304 303 307 315 315 304 294 283 270 267 279 301 309 313 307 280 265 275 290 291 294 306 294 283 277 278 282 281 279 278 275 273 265 258 254 244 237 232 232 230 231 232 229 227 227 226 227 225 225 226 226 226 225 223 223 222 221 219 218 220 220 224 233 235 234 237 240 246 249 252 263 263 249 226 209 206 205 208 211 212 215 222 228 231 236 242 243 245 251 252 258 262 268 269 269 268 267 269 269 271 271 272 274 278 285 288 289 291 292 294 293 297 295 289 284 288 297 302 303 307 308 311 313 316 318 319 318 321 325 327 333 333 334 339 340 341 340 341 340 340
