ncols        262
nrows        76
xllcorner    453945
yllcorner    4052475
cellsize     30.000000000000
NODATA_value -32767
1523 1518 1516 1509 1506 1501 1495 1495 1495 1493 1492 1492 1494 1492 1489 1486 1488 1491 1488 1486 1481 1479 1481 1482 1479 1474 1469 1465 1463 1462 1461 1456 1450 1450 1447 1442 1437 1432 1426 1424 1419 1416 1412 1410 1407 1396 1395 1394 1394 1393 1392 1390 1388 1387 1385 1382 1379 1375 1371 1369 1364 1359 1356 1353 1350 1346 1341 1338 1335 1333 1331 1330 1329 1328 1327 1322 1319 1317 1316 1314 1312 1310 1308 1306 1304 1305 1307 1307 1307 1307 1307 1305 1301 1296 1291 1286 1279 1274 1265 1255 1248 1240 1229 1218 1207 1192 1177 1164 1147 1129 1113 1103 1102 1111 1120 1127 1132 1134 1137 1141 1145 1147 1149 1149 1146 1137 1127 1121 1112 1111 1109 1104 1106 1116 1125 1133 1141 1147 1152 1165 1176 1196 1202 1205 1212 1224 1235 1240 1249 1262 1272 1274 1274 1271 1272 1271 1268 1265 1261 1256 1250 1241 1229 1218 1209 1206 1196 1189 1184 1180 1181 1177 1172 1177 1187 1193 1198 1201 1203 1203 1200 1197 1193 1189 1187 1188 1190 1193 1196 1200 1202 1204 1207 1207 1207 1206 1202 1196 1188 1178 1168 1163 1157 1151 1137 1117 1108 1093 1080 1071 1061 1053 1048 1041 1035 1027 1020 1015 1007 999 993 987 982 977 973 970 966 959 954 947 942 933 929 927 925 922 919 915 913 911 909 908 903 900 899 897 894 890 887 885 884 884 883 881 881 880 879 879 879 881 884 887
1528 1523 1520 1514 1510 1504 1498 1498 1495 1493 1493 1491 1492 1489 1489 1485 1485 1488 1488 1483 1478 1474 1476 1478 1474 1470 1465 1465 1462 1457 1453 1453 1452 1447 1441 1437 1431 1427 1421 1416 1412 1408 1404 1401 1397 1390 1389 1388 1389 1388 1388 1386 1385 1384 1382 1379 1375 1372 1368 1365 1361 1357 1353 1350 1347 1341 1336 1332 1329 1327 1324 1322 1321 1320 1319 1315 1312 1311 1310 1309 1308 1306 1304 1302 1300 1301 1302 1303 1304 1304 1303 1301 1296 1291 1285 1279 1272 1264 1254 1245 1237 1230 1221 1211 1202 1188 1174 1162 1146 1129 1113 1104 1102 1109 1115 1120 1124 1126 1128 1133 1137 1141 1144 1145 1143 1134 1126 1117 1107 1105 1103 1101 1104 1114 1123 1133 1142 1148 1155 1169 1180 1198 1205 1209 1216 1228 1237 1243 1252 1263 1272 1274 1275 1271 1272 1272 1269 1266 1261 1256 1249 1241 1228 1217 1206 1202 1193 1185 1179 1175 1175 1170 1166 1171 1180 1186 1191 1194 1195 1195 1192 1189 1185 1180 1178 1179 1181 1185 1188 1193 1195 1197 1201 1202 1202 1201 1196 1189 1182 1173 1164 1159 1154 1149 1134 1116 1107 1091 1077 1066 1055 1047 1043 1038 1032 1024 1016 1010 1001 993 986 980 975 971 967 964 960 953 949 942 936 927 924 922 921 918 915 911 909 908 907 906 901 899 898 895 892 888 885 884 883 883 883 882 882 881 880 880 880 883 887 892
1534 1527 1519 1518 1513 1507 1501 1495 1493 1488 1489 1487 1487 1488 1488 1486 1480 1482 1483 1477 1473 1470 1471 1473 1468 1464 1460 1461 1459 1452 1446 1447 1446 1441 1434 1431 1426 1421 1416 1410 1404 1401 1396 1392 1389 1384 1384 1383 1384 1384 1384 1383 1382 1381 1379 1376 1372 1369 1365 1362 1358 1355 1351 1347 1344 1337 1332 1327 1323 1321 1318 1315 1313 1313 1311 1308 1306 1305 1305 1305 1304 1302 1300 1298 1296 1297 1298 1300 1301 1301 1300 1297 1292 1287 1280 1273 1266 1255 1243 1236 1226 1220 1213 1205 1197 1185 1172 1160 1146 1129 1114 1105 1102 1108 1111 1114 1116 1118 1120 1125 1130 1135 1139 1141 1140 1132 1125 1114 1103 1099 1098 1098 1103 1112 1122 1133 1144 1150 1158 1174 1184 1201 1208 1213 1221 1232 1240 1246 1255 1265 1272 1275 1276 1272 1273 1273 1271 1267 1262 1256 1249 1241 1228 1216 1204 1198 1190 1181 1175 1171 1169 1164 1160 1165 1174 1180 1184 1187 1188 1188 1185 1181 1177 1172 1170 1170 1172 1177 1181 1186 1188 1191 1196 1197 1197 1196 1190 1183 1176 1168 1160 1155 1152 1147 1132 1115 1106 1089 1074 1062 1050 1041 1038 1035 1029 1021 1012 1006 996 987 979 973 969 966 961 958 954 948 944 937 931 922 919 918 917 915 912 907 905 905 905 904 900 898 897 894 890 886 884 883 882 883 883 883 883 882 881 881 882 886 891 898
1534 1528 1521 1520 1515 1510 1506 1500 1495 1490 1491 1491 1493 1492 1491 1487 1484 1482 1479 1476 1472 1470 1470 1467 1463 1458 1454 1456 1453 1447 1441 1441 1437 1435 1429 1423 1420 1415 1409 1403 1397 1394 1388 1383 1382 1378 1378 1377 1379 1379 1380 1379 1379 1378 1375 1372 1369 1365 1361 1358 1355 1353 1348 1344 1341 1333 1327 1321 1317 1315 1312 1307 1305 1305 1303 1300 1299 1298 1299 1300 1299 1298 1296 1294 1292 1292 1294 1296 1298 1298 1296 1292 1287 1282 1274 1266 1259 1245 1231 1226 1214 1210 1204 1198 1191 1181 1169 1158 1146 1130 1115 1106 1102 1105 1105 1106 1107 1108 1110 1115 1121 1128 1133 1136 1136 1129 1124 1111 1098 1093 1092 1096 1102 1110 1120 1131 1143 1149 1160 1176 1186 1199 1206 1212 1222 1232 1239 1245 1253 1261 1267 1270 1272 1270 1272 1274 1272 1269 1264 1258 1250 1242 1230 1218 1205 1196 1189 1178 1172 1167 1164 1158 1154 1158 1166 1171 1175 1179 1180 1180 1178 1174 1170 1165 1163 1161 1162 1166 1170 1175 1178 1181 1187 1189 1188 1186 1180 1173 1167 1161 1155 1151 1149 1141 1125 1112 1103 1085 1072 1061 1048 1038 1034 1029 1019 1012 1004 999 991 984 975 969 965 962 958 955 951 946 942 936 931 924 920 918 917 915 912 908 906 905 904 902 899 897 896 893 890 888 888 889 889 890 891 891 891 890 890 889 889 893 898 904
1531 1527 1522 1516 1516 1512 1507 1500 1496 1491 1493 1492 1495 1494 1491 1490 1487 1482 1478 1476 1473 1470 1469 1463 1459 1457 1451 1450 1446 1440 1435 1434 1429 1428 1422 1415 1413 1408 1402 1395 1389 1386 1382 1377 1375 1372 1372 1372 1374 1375 1376 1376 1376 1375 1372 1369 1366 1362 1358 1355 1353 1352 1345 1342 1338 1329 1322 1316 1312 1310 1306 1299 1298 1297 1295 1293 1293 1292 1294 1295 1295 1294 1293 1291 1288 1288 1290 1293 1296 1295 1293 1288 1283 1277 1268 1260 1253 1235 1220 1217 1203 1200 1196 1191 1186 1177 1166 1156 1146 1131 1117 1108 1103 1103 1100 1098 1098 1098 1101 1106 1113 1121 1127 1131 1132 1127 1124 1108 1094 1088 1087 1094 1101 1108 1118 1130 1143 1149 1162 1179 1188 1198 1205 1212 1223 1232 1238 1244 1251 1257 1262 1266 1269 1269 1272 1275 1274 1271 1266 1260 1252 1244 1233 1221 1206 1194 1188 1176 1170 1164 1159 1152 1148 1152 1158 1163 1167 1171 1173 1173 1172 1168 1163 1159 1156 1153 1153 1156 1160 1164 1169 1171 1179 1181 1180 1177 1170 1163 1158 1154 1150 1148 1146 1136 1118 1110 1100 1081 1071 1060 1046 1036 1030 1023 1010 1003 997 992 987 982 972 965 962 959 956 953 949 945 941 935 931 926 921 919 917 916 913 909 907 906 904 901 899 897 895 892 891 891 893 895 896 897 899 899 899 899 899 898 897 900 905 910
1528 1525 1521 1515 1514 1509 1505 1499 1492 1487 1487 1485 1487 1488 1489 1488 1485 1480 1476 1472 1473 1468 1464 1459 1459 1458 1451 1445 1439 1433 1428 1426 1423 1421 1415 1411 1408 1401 1394 1386 1380 1377 1377 1373 1374 1366 1366 1366 1368 1369 1369 1369 1369 1369 1366 1364 1361 1358 1354 1350 1347 1344 1338 1335 1330 1322 1315 1310 1306 1302 1298 1292 1290 1289 1288 1286 1287 1286 1288 1289 1288 1287 1286 1284 1283 1283 1285 1287 1289 1287 1285 1280 1275 1268 1258 1250 1242 1226 1212 1208 1195 1191 1185 1180 1175 1167 1157 1148 1139 1127 1115 1107 1102 1101 1098 1096 1095 1094 1096 1101 1107 1114 1120 1124 1125 1121 1119 1103 1090 1086 1086 1094 1102 1109 1119 1132 1145 1152 1165 1181 1190 1198 1205 1213 1223 1231 1236 1242 1248 1253 1258 1262 1265 1267 1270 1273 1272 1269 1265 1259 1251 1244 1234 1223 1207 1194 1189 1176 1169 1162 1155 1146 1142 1145 1149 1153 1158 1162 1164 1166 1165 1162 1157 1154 1149 1145 1144 1146 1150 1154 1159 1162 1170 1172 1171 1166 1159 1153 1148 1146 1144 1143 1141 1130 1113 1108 1097 1078 1069 1058 1044 1033 1026 1017 1002 996 990 986 982 979 968 961 958 956 953 950 947 943 939 934 931 927 921 919 917 916 913 910 907 906 903 900 898 896 894 892 891 893 898 901 902 904 907 907 907 907 907 906 904 906 911 916
1523 1520 1518 1512 1509 1504 1499 1494 1488 1482 1481 1478 1480 1482 1486 1484 1482 1479 1476 1473 1470 1464 1462 1456 1455 1452 1445 1438 1431 1426 1421 1419 1417 1414 1408 1405 1401 1394 1385 1378 1373 1370 1373 1369 1369 1361 1361 1361 1362 1363 1363 1363 1363 1363 1361 1359 1357 1354 1350 1346 1341 1337 1332 1328 1323 1315 1309 1305 1300 1294 1290 1285 1283 1282 1281 1280 1281 1281 1282 1283 1282 1281 1279 1278 1278 1278 1280 1282 1282 1280 1277 1273 1267 1259 1249 1240 1231 1217 1205 1200 1187 1182 1174 1169 1164 1157 1148 1140 1133 1124 1114 1106 1102 1100 1097 1094 1092 1091 1092 1096 1101 1108 1114 1118 1119 1116 1115 1099 1087 1084 1086 1095 1103 1111 1121 1134 1148 1156 1169 1184 1192 1199 1206 1214 1224 1231 1235 1240 1246 1250 1254 1258 1262 1265 1268 1271 1271 1268 1264 1258 1251 1244 1236 1226 1209 1195 1190 1177 1168 1161 1151 1141 1137 1138 1140 1144 1149 1154 1156 1159 1159 1156 1152 1149 1143 1138 1136 1137 1141 1145 1150 1153 1161 1163 1162 1156 1149 1143 1139 1138 1138 1139 1137 1124 1108 1106 1095 1075 1068 1057 1042 1031 1022 1011 995 989 984 980 978 977 965 957 955 953 951 948 945 942 938 933 932 929 922 919 918 916 913 911 908 906 903 899 898 896 894 892 891 896 903 907 909 912 915 916 916 916 916 915 912 913 918 923
1519 1515 1512 1506 1503 1497 1493 1489 1482 1477 1473 1473 1474 1475 1479 1476 1477 1476 1474 1470 1464 1459 1457 1453 1448 1443 1435 1427 1421 1416 1411 1411 1409 1405 1399 1392 1386 1382 1375 1370 1366 1367 1368 1367 1365 1356 1355 1355 1355 1356 1357 1357 1357 1357 1355 1354 1352 1349 1345 1341 1334 1330 1325 1321 1315 1308 1303 1300 1293 1286 1281 1277 1275 1274 1274 1273 1274 1275 1276 1276 1275 1273 1272 1272 1272 1273 1274 1276 1275 1271 1268 1265 1257 1249 1239 1229 1220 1208 1198 1192 1180 1173 1162 1156 1151 1145 1137 1130 1125 1118 1111 1105 1101 1098 1096 1093 1091 1090 1090 1092 1096 1102 1107 1110 1111 1109 1107 1094 1084 1083 1088 1096 1105 1114 1125 1138 1152 1161 1173 1186 1194 1201 1207 1216 1225 1230 1233 1237 1243 1247 1250 1254 1259 1261 1264 1266 1266 1263 1259 1254 1249 1243 1236 1227 1212 1199 1192 1181 1170 1161 1149 1137 1131 1130 1130 1133 1138 1144 1146 1152 1154 1152 1149 1145 1139 1133 1130 1130 1133 1138 1142 1145 1151 1152 1150 1143 1136 1131 1128 1128 1129 1130 1128 1119 1107 1104 1093 1075 1066 1054 1040 1028 1018 1007 994 988 982 978 975 973 963 955 953 951 949 946 943 940 936 932 931 928 922 919 917 915 912 910 909 909 907 903 901 897 895 893 895 901 909 913 917 920 923 925 924 924 923 922 920 922 927 931
1512 1511 1506 1500 1494 1491 1486 1481 1476 1469 1466 1468 1466 1465 1470 1471 1472 1472 1469 1466 1461 1458 1454 1451 1446 1440 1433 1424 1416 1411 1407 1407 1404 1399 1393 1387 1380 1375 1370 1366 1364 1362 1363 1361 1358 1351 1350 1350 1349 1350 1351 1351 1351 1351 1350 1349 1348 1345 1341 1337 1328 1323 1319 1314 1308 1301 1297 1295 1287 1278 1273 1270 1267 1267 1267 1267 1268 1270 1271 1270 1268 1266 1265 1266 1267 1268 1269 1271 1268 1263 1259 1257 1248 1239 1229 1219 1209 1199 1192 1185 1174 1164 1151 1144 1139 1134 1126 1121 1118 1113 1108 1104 1100 1097 1096 1093 1091 1089 1089 1089 1092 1097 1101 1103 1103 1102 1100 1090 1082 1083 1090 1098 1108 1118 1130 1143 1156 1166 1178 1188 1196 1203 1209 1218 1226 1229 1231 1235 1241 1244 1247 1251 1256 1258 1260 1261 1261 1258 1254 1250 1247 1243 1237 1228 1215 1203 1195 1185 1173 1162 1148 1133 1126 1123 1121 1122 1128 1134 1136 1145 1150 1149 1146 1141 1135 1129 1124 1123 1126 1131 1135 1138 1142 1142 1139 1131 1124 1119 1118 1119 1121 1122 1120 1114 1106 1102 1092 1075 1065 1052 1038 1025 1014 1004 993 988 981 976 972 969 961 954 952 950 948 945 941 938 935 931 930 928 922 919 917 914 912 910 910 912 911 908 905 898 896 895 899 907 915 920 925 928 931 934 933 932 931 930 929 931 936 940
1502 1501 1499 1493 1488 1484 1479 1474 1469 1463 1460 1458 1460 1460 1464 1465 1468 1466 1464 1461 1457 1455 1455 1451 1445 1437 1430 1424 1417 1411 1406 1405 1399 1394 1388 1382 1375 1369 1369 1371 1366 1361 1357 1354 1351 1348 1346 1346 1344 1345 1345 1345 1345 1345 1344 1343 1342 1340 1336 1331 1323 1317 1312 1307 1302 1296 1292 1289 1281 1273 1268 1264 1261 1260 1261 1261 1262 1263 1263 1262 1261 1259 1258 1258 1260 1261 1263 1264 1261 1255 1250 1248 1239 1229 1219 1209 1199 1190 1183 1176 1166 1157 1144 1138 1134 1130 1123 1119 1117 1113 1109 1105 1102 1099 1098 1096 1094 1091 1091 1090 1092 1095 1098 1099 1098 1098 1096 1087 1080 1082 1089 1096 1105 1116 1129 1141 1153 1164 1176 1185 1192 1199 1205 1213 1220 1222 1224 1228 1234 1237 1240 1245 1250 1252 1253 1254 1254 1251 1247 1244 1243 1240 1236 1228 1216 1206 1197 1188 1175 1163 1147 1131 1122 1117 1113 1113 1118 1123 1126 1137 1143 1144 1141 1137 1130 1124 1118 1116 1119 1124 1127 1130 1132 1131 1128 1119 1111 1108 1108 1109 1112 1113 1112 1109 1105 1099 1090 1075 1063 1050 1035 1021 1010 1000 992 987 979 973 968 965 958 952 950 948 946 943 939 936 934 930 929 927 922 918 916 913 911 910 911 915 915 912 908 899 897 896 902 912 921 927 932 936 939 943 942 939 938 937 938 940 945 948
1494 1493 1491 1486 1482 1476 1471 1467 1461 1456 1453 1449 1453 1454 1458 1458 1463 1460 1458 1456 1452 1451 1450 1447 1442 1436 1427 1421 1415 1410 1404 1401 1394 1389 1383 1376 1369 1364 1365 1369 1367 1362 1357 1351 1348 1345 1343 1342 1340 1340 1340 1340 1340 1340 1339 1338 1337 1335 1332 1326 1318 1311 1306 1301 1297 1291 1287 1283 1276 1268 1263 1258 1255 1254 1255 1255 1256 1257 1256 1255 1254 1253 1252 1251 1253 1255 1257 1257 1254 1248 1242 1239 1230 1220 1210 1199 1190 1181 1174 1167 1159 1150 1138 1133 1130 1127 1121 1117 1116 1113 1111 1107 1104 1102 1101 1100 1097 1094 1093 1092 1092 1094 1095 1095 1094 1094 1092 1084 1079 1082 1088 1094 1103 1115 1128 1140 1151 1163 1174 1182 1189 1195 1201 1209 1214 1216 1218 1222 1228 1231 1234 1239 1244 1247 1247 1247 1247 1245 1241 1239 1239 1238 1235 1229 1218 1209 1199 1192 1177 1165 1147 1129 1119 1112 1105 1104 1108 1113 1116 1129 1137 1139 1137 1133 1126 1119 1112 1109 1112 1117 1120 1122 1122 1121 1117 1107 1099 1097 1098 1100 1103 1104 1105 1104 1104 1096 1089 1075 1061 1048 1033 1018 1006 997 992 987 977 971 965 962 956 951 949 947 945 941 937 935 933 930 929 926 922 918 916 913 911 910 913 918 919 917 911 901 898 898 906 917 927 934 940 944 948 952 951 947 946 945 947 950 954 957
1486 1486 1483 1478 1474 1469 1465 1460 1454 1447 1446 1444 1448 1448 1452 1455 1456 1453 1451 1450 1448 1447 1446 1442 1437 1430 1426 1420 1414 1409 1403 1397 1390 1384 1377 1370 1363 1366 1367 1370 1369 1367 1361 1355 1350 1342 1339 1338 1335 1334 1334 1334 1334 1334 1333 1332 1331 1329 1327 1320 1312 1306 1299 1295 1292 1286 1282 1277 1271 1263 1258 1253 1249 1248 1249 1249 1250 1251 1248 1246 1246 1247 1245 1243 1245 1248 1250 1250 1247 1242 1234 1229 1221 1211 1200 1190 1182 1172 1164 1157 1151 1143 1135 1133 1131 1129 1124 1121 1120 1117 1115 1111 1108 1107 1106 1105 1103 1100 1099 1098 1097 1097 1096 1095 1093 1092 1090 1083 1078 1080 1083 1086 1095 1106 1119 1130 1140 1151 1161 1170 1176 1181 1186 1193 1198 1201 1203 1209 1215 1219 1222 1227 1232 1236 1236 1237 1237 1234 1231 1230 1231 1231 1230 1225 1217 1208 1200 1194 1177 1167 1150 1133 1123 1113 1103 1098 1098 1100 1104 1116 1124 1127 1128 1125 1119 1113 1106 1103 1105 1109 1110 1110 1109 1110 1106 1098 1091 1088 1088 1090 1092 1094 1096 1095 1094 1087 1081 1067 1054 1043 1031 1017 1004 996 990 985 976 971 966 963 959 955 953 950 947 943 938 935 933 931 929 926 923 920 918 916 914 914 917 920 921 918 912 903 899 898 906 916 926 935 941 945 947 949 948 945 944 945 948 952 956 958
1480 1479 1476 1471 1466 1462 1460 1453 1446 1439 1440 1439 1442 1441 1446 1450 1449 1449 1446 1444 1442 1442 1442 1437 1431 1425 1424 1418 1414 1409 1403 1396 1388 1380 1373 1367 1361 1364 1365 1367 1363 1361 1356 1351 1346 1339 1336 1334 1331 1329 1329 1329 1329 1328 1328 1327 1325 1324 1322 1314 1307 1301 1293 1289 1288 1282 1277 1272 1266 1259 1253 1248 1243 1242 1244 1244 1244 1245 1241 1238 1239 1241 1238 1236 1237 1241 1243 1243 1241 1236 1226 1220 1212 1202 1190 1181 1174 1163 1154 1148 1143 1137 1132 1133 1132 1131 1128 1126 1124 1121 1119 1116 1113 1112 1112 1111 1109 1107 1106 1104 1102 1100 1097 1095 1093 1091 1089 1083 1078 1078 1078 1079 1087 1098 1111 1121 1129 1140 1149 1158 1163 1167 1172 1178 1182 1186 1189 1196 1203 1208 1210 1216 1221 1225 1226 1227 1227 1224 1221 1221 1223 1225 1225 1222 1217 1208 1202 1196 1177 1169 1154 1138 1127 1115 1102 1093 1089 1088 1092 1103 1111 1116 1119 1117 1113 1107 1100 1097 1099 1101 1100 1098 1097 1099 1096 1090 1083 1079 1078 1080 1081 1085 1088 1087 1085 1078 1073 1059 1047 1038 1030 1016 1003 995 989 984 976 971 968 965 962 959 957 953 949 945 940 936 934 932 929 927 924 922 920 919 918 919 921 923 923 920 914 905 901 899 906 916 926 937 943 946 947 947 945 943 943 945 950 955 958 959
1472 1472 1470 1468 1462 1456 1453 1445 1439 1436 1435 1437 1436 1436 1441 1442 1444 1443 1440 1440 1438 1436 1437 1432 1426 1424 1421 1415 1410 1406 1404 1396 1387 1379 1373 1372 1366 1366 1362 1362 1358 1356 1352 1351 1345 1341 1338 1335 1332 1329 1328 1327 1326 1325 1324 1323 1320 1319 1317 1309 1303 1297 1289 1285 1284 1278 1273 1268 1263 1256 1250 1245 1240 1239 1240 1239 1239 1239 1234 1231 1232 1233 1230 1228 1229 1232 1234 1234 1231 1227 1216 1210 1202 1193 1182 1174 1169 1159 1151 1145 1142 1137 1134 1136 1136 1135 1133 1131 1130 1127 1125 1122 1120 1119 1118 1117 1115 1113 1112 1109 1107 1104 1100 1097 1094 1092 1089 1083 1078 1078 1075 1074 1080 1090 1102 1112 1119 1129 1137 1147 1151 1154 1158 1163 1167 1171 1176 1183 1190 1196 1198 1204 1209 1214 1216 1216 1216 1213 1211 1212 1215 1218 1219 1218 1216 1207 1203 1198 1177 1170 1157 1141 1130 1116 1100 1088 1079 1075 1080 1090 1098 1104 1109 1108 1106 1101 1094 1091 1092 1093 1090 1086 1085 1088 1086 1081 1074 1070 1068 1069 1070 1075 1079 1078 1075 1069 1065 1051 1040 1033 1028 1014 1001 994 988 983 975 971 969 967 965 963 961 956 951 947 941 937 935 933 929 927 925 924 923 922 922 924 925 925 924 921 915 907 903 900 905 914 924 937 943 945 944 942 939 938 939 943 949 955 958 958
1465 1467 1464 1466 1458 1450 1444 1437 1432 1431 1429 1432 1430 1431 1437 1436 1438 1437 1435 1434 1432 1430 1430 1426 1420 1421 1416 1412 1407 1401 1399 1394 1387 1382 1375 1369 1365 1368 1366 1361 1358 1357 1355 1353 1348 1344 1340 1337 1333 1329 1328 1325 1323 1322 1321 1319 1316 1315 1312 1305 1299 1294 1285 1281 1280 1275 1269 1265 1260 1254 1248 1243 1238 1236 1236 1235 1235 1233 1228 1224 1225 1226 1223 1220 1221 1224 1226 1225 1222 1218 1207 1200 1193 1185 1175 1168 1164 1155 1148 1143 1141 1137 1136 1139 1140 1139 1139 1137 1136 1134 1132 1129 1127 1126 1125 1124 1121 1120 1118 1115 1113 1109 1104 1100 1096 1093 1090 1084 1079 1078 1072 1069 1074 1083 1094 1103 1109 1118 1126 1136 1140 1142 1145 1149 1153 1157 1163 1170 1178 1184 1187 1193 1198 1203 1206 1206 1206 1203 1201 1203 1208 1212 1214 1215 1215 1207 1204 1200 1178 1172 1160 1145 1133 1117 1099 1083 1070 1063 1068 1077 1085 1093 1100 1100 1099 1095 1088 1085 1086 1085 1080 1074 1073 1077 1076 1073 1066 1061 1058 1059 1060 1065 1071 1070 1066 1060 1058 1043 1034 1029 1027 1013 1000 994 987 982 975 972 971 969 969 968 965 959 953 949 943 938 936 934 930 928 926 926 926 925 927 929 929 928 926 922 917 910 905 901 904 912 923 937 944 944 941 937 933 934 936 942 949 956 958 957
1461 1462 1459 1458 1451 1443 1435 1431 1426 1426 1424 1426 1428 1433 1435 1435 1433 1431 1431 1430 1428 1427 1424 1423 1420 1417 1411 1408 1402 1397 1395 1390 1386 1378 1371 1364 1366 1368 1367 1364 1363 1362 1361 1357 1354 1348 1343 1340 1336 1331 1329 1324 1321 1320 1318 1315 1312 1310 1307 1301 1296 1291 1283 1277 1276 1272 1266 1262 1258 1252 1247 1242 1237 1235 1233 1231 1231 1228 1223 1219 1218 1217 1214 1211 1211 1214 1216 1215 1210 1206 1197 1188 1182 1176 1169 1165 1163 1157 1152 1149 1147 1145 1144 1146 1147 1146 1146 1145 1144 1143 1141 1138 1136 1135 1133 1130 1128 1126 1124 1120 1118 1115 1112 1108 1103 1099 1095 1087 1082 1081 1075 1070 1071 1077 1085 1094 1100 1109 1117 1126 1130 1132 1134 1138 1143 1147 1152 1159 1166 1171 1175 1181 1186 1192 1196 1197 1196 1193 1193 1196 1202 1206 1208 1210 1210 1204 1202 1198 1178 1168 1156 1142 1129 1113 1095 1078 1065 1058 1061 1067 1075 1083 1088 1088 1087 1086 1082 1081 1082 1081 1077 1070 1065 1065 1064 1062 1057 1053 1051 1050 1049 1053 1058 1055 1052 1046 1044 1032 1025 1021 1020 1010 1000 996 991 987 982 980 979 977 976 975 972 966 961 958 954 949 945 942 938 936 934 934 932 931 931 932 931 929 927 923 918 911 907 902 905 912 921 934 941 942 940 937 933 934 936 941 949 956 958 956
1459 1457 1455 1450 1443 1435 1427 1426 1421 1420 1419 1419 1423 1427 1430 1430 1427 1425 1427 1426 1424 1422 1418 1416 1414 1411 1406 1402 1397 1396 1391 1386 1381 1374 1368 1364 1363 1365 1365 1364 1364 1366 1368 1364 1362 1352 1347 1344 1339 1333 1330 1324 1320 1318 1316 1311 1308 1306 1302 1297 1293 1288 1281 1274 1273 1269 1264 1260 1256 1251 1246 1241 1237 1234 1231 1228 1227 1224 1218 1214 1211 1209 1206 1202 1202 1205 1207 1205 1199 1194 1187 1177 1172 1168 1164 1163 1162 1159 1157 1155 1154 1153 1153 1154 1154 1154 1154 1154 1153 1153 1151 1148 1146 1144 1141 1137 1135 1133 1130 1126 1124 1122 1120 1116 1110 1105 1100 1090 1085 1084 1079 1071 1069 1071 1077 1085 1092 1100 1108 1116 1121 1122 1124 1128 1133 1137 1142 1148 1154 1159 1164 1170 1174 1181 1187 1188 1186 1183 1185 1190 1196 1200 1203 1206 1206 1202 1200 1197 1178 1165 1152 1139 1125 1109 1091 1073 1060 1054 1054 1058 1066 1073 1077 1076 1075 1077 1077 1077 1078 1077 1074 1066 1058 1054 1053 1052 1048 1046 1045 1042 1039 1042 1045 1041 1038 1033 1031 1022 1016 1013 1014 1007 1001 998 995 993 990 988 987 985 984 982 979 974 970 968 965 960 955 951 947 945 943 942 939 938 936 935 933 930 928 924 920 913 909 904 906 912 920 932 939 940 940 937 934 935 936 941 949 956 958 956
1453 1451 1449 1443 1436 1428 1421 1420 1416 1414 1415 1415 1418 1420 1424 1425 1423 1424 1425 1423 1419 1415 1412 1409 1409 1404 1400 1396 1392 1396 1389 1381 1377 1373 1368 1370 1366 1365 1366 1366 1369 1372 1375 1370 1369 1358 1353 1350 1344 1337 1332 1325 1321 1318 1315 1310 1306 1304 1300 1295 1292 1287 1281 1274 1272 1268 1263 1259 1256 1251 1246 1242 1238 1235 1232 1228 1227 1224 1218 1214 1210 1206 1202 1197 1196 1199 1200 1198 1192 1187 1182 1172 1168 1165 1164 1164 1164 1164 1163 1162 1162 1161 1161 1162 1162 1162 1162 1162 1163 1163 1161 1158 1156 1154 1150 1145 1142 1140 1137 1133 1131 1129 1128 1124 1116 1111 1105 1094 1089 1088 1083 1073 1068 1067 1070 1077 1084 1091 1099 1106 1111 1112 1113 1117 1122 1127 1132 1137 1141 1146 1152 1158 1162 1169 1177 1179 1176 1173 1176 1183 1190 1194 1198 1202 1202 1199 1198 1195 1178 1162 1148 1135 1121 1104 1086 1068 1055 1049 1046 1049 1056 1063 1065 1063 1063 1068 1071 1073 1074 1073 1071 1062 1050 1042 1041 1042 1039 1039 1038 1033 1028 1030 1031 1026 1023 1018 1016 1010 1006 1005 1006 1004 1002 1001 1000 999 998 997 996 994 993 990 986 982 980 980 978 973 967 962 959 956 954 952 947 945 940 937 933 930 929 925 922 914 911 906 908 913 918 927 934 938 940 939 938 938 938 941 949 955 957 956
1446 1446 1442 1436 1429 1421 1414 1416 1415 1412 1413 1412 1416 1417 1421 1421 1420 1422 1423 1420 1415 1412 1409 1406 1404 1400 1399 1394 1392 1391 1387 1381 1375 1374 1372 1374 1372 1371 1371 1373 1376 1379 1382 1378 1376 1364 1360 1356 1350 1342 1334 1327 1322 1318 1315 1310 1305 1302 1298 1294 1291 1287 1281 1275 1271 1267 1262 1259 1256 1252 1247 1244 1240 1236 1233 1229 1228 1224 1219 1215 1209 1204 1198 1192 1190 1193 1194 1192 1185 1181 1177 1168 1164 1163 1164 1165 1167 1169 1170 1170 1170 1170 1170 1170 1170 1170 1171 1171 1173 1173 1172 1169 1167 1164 1159 1153 1150 1148 1144 1140 1138 1137 1136 1132 1123 1117 1110 1098 1093 1092 1087 1075 1067 1063 1064 1070 1077 1083 1090 1096 1102 1103 1103 1107 1112 1117 1122 1126 1129 1134 1141 1147 1150 1158 1168 1171 1166 1164 1168 1177 1184 1189 1193 1198 1198 1196 1196 1194 1178 1159 1144 1132 1117 1100 1082 1064 1051 1044 1039 1040 1047 1053 1054 1051 1051 1059 1066 1069 1070 1070 1068 1059 1042 1031 1030 1032 1030 1032 1032 1025 1018 1018 1017 1011 1008 1004 1002 999 997 997 999 1001 1003 1004 1006 1006 1007 1007 1006 1003 1002 998 994 991 991 992 991 987 979 973 971 967 965 963 956 953 945 939 934 931 930 927 924 915 913 908 911 914 917 923 930 936 941 942 942 942 940 942 949 955 957 956
1438 1441 1438 1430 1423 1417 1415 1412 1411 1407 1408 1411 1416 1418 1421 1423 1424 1426 1422 1418 1417 1413 1411 1407 1405 1401 1399 1396 1393 1389 1389 1387 1380 1377 1377 1377 1379 1378 1377 1379 1382 1385 1388 1385 1382 1371 1368 1363 1357 1349 1336 1330 1325 1319 1316 1311 1306 1302 1298 1295 1291 1288 1284 1278 1272 1268 1263 1260 1258 1254 1250 1247 1244 1241 1238 1235 1234 1231 1227 1223 1216 1210 1201 1192 1189 1191 1192 1191 1186 1183 1181 1175 1173 1172 1173 1174 1176 1178 1180 1181 1180 1180 1179 1178 1179 1180 1181 1182 1185 1185 1184 1182 1179 1177 1172 1166 1162 1159 1155 1152 1148 1146 1144 1138 1129 1123 1117 1107 1102 1101 1095 1084 1076 1071 1070 1073 1077 1080 1082 1083 1088 1089 1090 1095 1100 1105 1109 1112 1115 1121 1128 1134 1138 1145 1153 1155 1151 1152 1157 1166 1174 1180 1186 1192 1193 1193 1193 1188 1174 1154 1142 1131 1116 1100 1084 1067 1053 1045 1038 1035 1040 1044 1045 1042 1043 1051 1058 1061 1062 1062 1061 1053 1038 1027 1024 1024 1021 1023 1023 1016 1010 1009 1008 1003 1000 997 995 994 993 993 995 998 1001 1003 1005 1006 1008 1009 1009 1006 1005 1001 996 992 992 993 994 991 985 979 978 974 973 971 964 960 951 944 938 935 932 929 926 917 915 912 915 918 921 925 931 938 944 946 947 947 945 945 950 954 955 954
1430 1433 1430 1423 1416 1410 1412 1406 1407 1405 1409 1412 1416 1417 1420 1422 1422 1425 1424 1422 1417 1413 1411 1406 1404 1403 1400 1398 1395 1393 1393 1392 1386 1383 1381 1382 1382 1380 1382 1385 1386 1386 1387 1391 1389 1379 1376 1370 1365 1356 1338 1333 1328 1321 1317 1313 1308 1303 1299 1296 1292 1289 1287 1281 1274 1269 1265 1262 1260 1257 1253 1250 1248 1246 1244 1242 1241 1239 1236 1231 1224 1216 1204 1193 1189 1190 1191 1191 1188 1186 1185 1182 1182 1182 1182 1183 1186 1188 1190 1192 1191 1190 1188 1186 1188 1190 1192 1194 1197 1198 1197 1195 1192 1190 1185 1179 1175 1171 1167 1164 1159 1156 1153 1145 1136 1130 1124 1116 1112 1111 1104 1094 1086 1079 1077 1077 1077 1077 1074 1071 1074 1076 1077 1083 1089 1094 1096 1098 1102 1108 1115 1122 1127 1133 1139 1140 1136 1140 1147 1156 1164 1172 1180 1187 1189 1190 1191 1183 1171 1150 1140 1131 1115 1101 1087 1070 1056 1047 1037 1031 1033 1036 1037 1034 1036 1043 1050 1054 1055 1055 1054 1047 1034 1023 1019 1016 1013 1014 1014 1008 1003 1001 1000 995 993 990 988 989 990 990 992 996 1000 1002 1004 1007 1009 1011 1012 1009 1008 1005 999 993 993 995 997 996 991 986 985 981 981 979 972 967 957 949 943 939 935 931 928 920 918 916 919 922 925 928 933 940 947 951 953 953 950 949 952 953 953 952
1423 1423 1419 1414 1408 1402 1403 1400 1402 1404 1409 1412 1415 1420 1422 1424 1425 1424 1423 1418 1419 1416 1411 1408 1407 1404 1402 1399 1396 1396 1395 1393 1389 1390 1385 1388 1386 1384 1387 1390 1390 1389 1389 1391 1391 1383 1380 1373 1368 1358 1339 1335 1330 1323 1318 1315 1310 1305 1301 1297 1293 1291 1289 1284 1276 1271 1266 1263 1261 1258 1254 1252 1250 1248 1247 1245 1244 1243 1241 1236 1229 1221 1208 1195 1191 1191 1193 1193 1191 1190 1190 1190 1191 1191 1191 1193 1196 1198 1200 1202 1201 1199 1197 1195 1197 1199 1202 1205 1209 1210 1210 1208 1204 1202 1198 1191 1187 1182 1179 1176 1169 1166 1161 1152 1142 1136 1131 1125 1121 1121 1113 1103 1095 1087 1083 1080 1077 1073 1066 1059 1060 1062 1064 1070 1077 1082 1083 1084 1088 1094 1102 1109 1115 1121 1124 1124 1121 1128 1136 1145 1154 1164 1174 1181 1184 1187 1188 1177 1167 1146 1138 1131 1114 1102 1090 1073 1059 1049 1036 1027 1026 1028 1028 1027 1029 1035 1041 1045 1046 1046 1045 1040 1030 1021 1015 1009 1005 1004 1003 999 996 994 993 989 988 985 983 986 988 988 990 993 997 999 1001 1004 1006 1009 1011 1009 1008 1005 998 990 988 990 994 995 993 991 989 985 986 986 980 973 964 957 951 945 939 933 930 923 921 921 924 928 934 936 940 946 952 957 959 960 958 956 956 951 949 947
1416 1414 1410 1405 1400 1395 1397 1395 1400 1404 1409 1416 1420 1424 1425 1425 1427 1426 1425 1421 1422 1421 1416 1415 1412 1410 1406 1404 1400 1398 1401 1398 1395 1396 1392 1395 1392 1389 1388 1390 1390 1390 1391 1389 1389 1387 1384 1377 1371 1360 1341 1337 1333 1325 1320 1317 1313 1307 1303 1299 1295 1293 1292 1287 1278 1273 1268 1265 1263 1260 1256 1254 1253 1251 1250 1249 1247 1247 1246 1241 1235 1226 1212 1198 1193 1193 1195 1195 1195 1195 1196 1198 1201 1201 1201 1203 1206 1209 1211 1213 1212 1209 1206 1204 1206 1209 1213 1217 1221 1223 1223 1221 1216 1215 1212 1204 1199 1194 1191 1188 1180 1176 1170 1159 1148 1143 1138 1134 1131 1131 1122 1113 1105 1096 1089 1083 1077 1070 1058 1047 1047 1048 1052 1058 1066 1070 1070 1071 1074 1081 1089 1097 1104 1109 1110 1109 1106 1116 1125 1135 1145 1156 1168 1176 1180 1184 1185 1172 1163 1142 1136 1131 1114 1103 1093 1077 1063 1052 1036 1024 1019 1020 1020 1020 1023 1028 1033 1037 1038 1038 1037 1034 1027 1019 1012 1002 997 995 993 991 989 988 986 984 984 981 978 983 986 987 988 991 994 996 998 1001 1004 1008 1011 1010 1009 1006 997 987 984 986 991 995 996 996 993 990 992 993 988 979 971 965 959 952 943 936 932 926 924 926 930 935 943 945 947 952 958 963 966 968 966 963 960 950 946 942
1397 1398 1396 1392 1387 1388 1388 1396 1400 1404 1411 1417 1421 1426 1428 1429 1430 1431 1430 1426 1423 1421 1420 1417 1414 1414 1409 1405 1403 1402 1402 1400 1400 1402 1400 1403 1400 1396 1394 1395 1394 1393 1393 1389 1388 1385 1382 1375 1367 1356 1341 1337 1334 1327 1323 1320 1316 1311 1307 1303 1298 1296 1293 1289 1281 1275 1269 1265 1263 1259 1255 1253 1251 1249 1247 1244 1242 1241 1240 1237 1233 1227 1217 1208 1204 1205 1208 1208 1209 1209 1210 1211 1213 1214 1214 1216 1219 1221 1222 1222 1222 1219 1217 1216 1218 1220 1224 1228 1231 1234 1234 1233 1228 1226 1223 1215 1211 1206 1203 1200 1192 1188 1181 1170 1160 1154 1148 1142 1139 1137 1128 1119 1110 1100 1093 1086 1080 1072 1061 1050 1047 1045 1046 1049 1055 1059 1060 1062 1066 1073 1080 1086 1093 1098 1099 1099 1098 1108 1118 1127 1137 1150 1162 1170 1175 1178 1178 1165 1155 1136 1128 1122 1105 1096 1088 1074 1062 1051 1034 1022 1016 1015 1014 1014 1017 1021 1025 1028 1029 1029 1029 1027 1021 1015 1007 997 992 990 987 986 984 983 981 979 979 977 975 980 983 985 985 987 990 993 996 1000 1003 1008 1011 1010 1009 1006 996 984 979 981 985 989 992 994 992 990 993 995 991 982 975 970 965 957 948 940 936 930 928 932 936 942 950 952 953 957 962 967 971 973 972 968 963 951 944 940
1386 1390 1390 1386 1383 1387 1391 1397 1402 1410 1416 1421 1426 1431 1435 1436 1437 1438 1438 1436 1432 1429 1428 1425 1422 1417 1413 1411 1409 1408 1405 1406 1406 1406 1408 1410 1407 1402 1399 1396 1395 1392 1392 1390 1385 1384 1380 1373 1364 1353 1341 1338 1335 1330 1326 1323 1320 1316 1312 1307 1302 1300 1295 1291 1284 1278 1271 1266 1263 1259 1255 1252 1250 1247 1244 1240 1237 1235 1235 1233 1231 1229 1223 1218 1216 1218 1221 1222 1223 1223 1224 1225 1226 1227 1227 1229 1232 1233 1233 1232 1232 1230 1228 1228 1230 1232 1235 1239 1242 1245 1246 1245 1241 1238 1234 1227 1223 1219 1216 1212 1205 1200 1193 1181 1172 1166 1159 1150 1147 1143 1135 1125 1115 1105 1098 1090 1083 1075 1064 1054 1047 1042 1041 1041 1045 1048 1050 1053 1058 1065 1071 1076 1082 1087 1088 1089 1091 1100 1111 1120 1130 1144 1157 1165 1171 1173 1171 1158 1148 1130 1121 1113 1097 1089 1083 1072 1062 1050 1032 1020 1013 1011 1008 1008 1011 1014 1017 1019 1020 1021 1022 1020 1016 1011 1003 993 987 985 982 981 979 978 976 975 975 974 972 978 981 983 982 983 987 990 995 999 1003 1008 1011 1011 1010 1007 996 982 975 976 979 984 989 992 992 991 995 997 994 986 980 976 971 963 953 945 940 935 932 938 943 949 958 960 960 963 967 972 976 978 978 974 967 952 943 938
1377 1381 1383 1382 1384 1391 1397 1400 1407 1414 1420 1426 1431 1437 1442 1443 1444 1445 1445 1446 1441 1438 1436 1433 1430 1425 1421 1420 1418 1416 1410 1413 1412 1410 1415 1416 1413 1408 1404 1401 1397 1395 1395 1393 1388 1383 1379 1372 1362 1352 1342 1340 1337 1334 1330 1327 1324 1321 1317 1311 1306 1303 1297 1293 1288 1281 1273 1267 1264 1260 1255 1252 1249 1245 1241 1236 1232 1230 1230 1230 1230 1230 1229 1228 1228 1230 1234 1235 1237 1237 1237 1238 1239 1240 1240 1242 1245 1245 1244 1242 1241 1240 1239 1240 1242 1243 1246 1250 1253 1256 1257 1256 1253 1250 1245 1238 1235 1231 1228 1223 1217 1212 1204 1192 1184 1178 1169 1158 1155 1149 1141 1131 1120 1109 1102 1093 1086 1078 1068 1058 1047 1039 1036 1032 1035 1037 1040 1044 1051 1058 1062 1066 1071 1076 1078 1080 1084 1093 1104 1113 1123 1139 1152 1160 1166 1167 1163 1150 1139 1124 1111 1101 1086 1079 1075 1067 1059 1048 1029 1018 1011 1007 1003 1003 1005 1007 1009 1010 1010 1012 1014 1013 1010 1005 998 989 984 982 979 977 975 974 972 971 970 970 970 975 978 980 977 978 982 988 994 999 1003 1009 1011 1011 1010 1007 996 979 971 969 969 973 979 983 985 986 991 993 990 985 981 978 974 968 960 952 947 941 938 944 951 957 964 965 965 967 970 973 976 978 979 976 970 957 949 943
1368 1373 1377 1377 1383 1391 1399 1400 1410 1418 1424 1430 1437 1444 1448 1450 1452 1454 1454 1454 1451 1447 1445 1440 1436 1432 1428 1427 1426 1423 1419 1419 1420 1416 1415 1416 1411 1408 1405 1403 1404 1398 1393 1389 1386 1382 1378 1371 1361 1351 1344 1342 1340 1338 1334 1331 1329 1326 1322 1316 1311 1307 1300 1296 1292 1284 1275 1269 1265 1261 1256 1252 1248 1243 1239 1232 1228 1225 1225 1227 1229 1232 1235 1238 1240 1243 1247 1249 1251 1251 1251 1252 1252 1253 1253 1256 1258 1258 1256 1252 1251 1251 1251 1252 1254 1255 1258 1261 1264 1267 1268 1268 1266 1262 1257 1250 1248 1244 1240 1235 1229 1224 1215 1204 1196 1190 1179 1167 1163 1155 1147 1137 1125 1114 1106 1097 1089 1081 1072 1063 1048 1037 1032 1024 1025 1026 1030 1036 1044 1051 1054 1057 1061 1065 1068 1071 1078 1086 1098 1106 1117 1134 1147 1155 1162 1162 1156 1143 1131 1118 1102 1089 1076 1070 1067 1063 1057 1046 1026 1017 1009 1004 999 998 999 1001 1001 1001 1001 1004 1006 1006 1004 999 993 986 981 980 977 974 972 971 969 967 966 967 968 973 976 977 973 973 977 986 994 999 1004 1011 1012 1012 1011 1007 996 977 967 962 960 963 969 974 978 982 987 989 987 984 982 980 978 973 967 960 954 948 944 951 959 965 970 971 970 971 973 975 976 978 980 979 974 963 955 949
1361 1366 1373 1380 1386 1391 1398 1403 1413 1421 1426 1434 1444 1452 1454 1458 1462 1462 1462 1461 1460 1455 1453 1449 1443 1440 1437 1434 1434 1431 1428 1427 1427 1422 1419 1418 1414 1414 1410 1407 1408 1403 1397 1392 1388 1384 1380 1375 1367 1359 1353 1350 1349 1347 1342 1339 1336 1333 1330 1324 1319 1315 1308 1304 1298 1290 1282 1277 1274 1271 1265 1261 1258 1253 1249 1242 1237 1234 1233 1236 1238 1241 1244 1247 1249 1251 1254 1256 1257 1258 1258 1258 1258 1259 1258 1259 1259 1257 1254 1250 1248 1248 1248 1248 1250 1252 1256 1259 1261 1264 1266 1266 1263 1260 1257 1252 1250 1246 1243 1239 1233 1228 1219 1208 1201 1193 1182 1171 1167 1155 1147 1136 1124 1113 1106 1097 1089 1082 1075 1067 1053 1042 1037 1025 1024 1023 1025 1029 1035 1039 1042 1045 1048 1053 1057 1061 1069 1077 1089 1097 1110 1128 1141 1149 1156 1156 1150 1139 1125 1114 1096 1082 1070 1063 1060 1056 1051 1040 1022 1014 1007 1001 995 994 995 996 996 995 995 998 1001 1002 1000 996 991 985 981 980 977 974 972 970 968 966 964 964 965 970 973 974 969 968 973 983 992 998 1003 1010 1011 1011 1009 1005 993 974 963 956 952 954 960 966 971 977 982 984 984 983 983 982 980 977 972 966 959 953 949 956 965 971 974 974 974 974 975 976 976 978 981 981 977 969 960 954
1355 1360 1368 1376 1384 1392 1400 1408 1419 1426 1432 1441 1451 1459 1462 1467 1470 1469 1470 1467 1466 1461 1461 1456 1450 1450 1447 1444 1444 1440 1436 1434 1432 1428 1425 1424 1420 1420 1417 1413 1409 1404 1402 1397 1391 1387 1383 1379 1373 1367 1362 1359 1358 1357 1351 1347 1344 1341 1338 1333 1327 1323 1317 1313 1304 1296 1289 1286 1284 1281 1275 1271 1269 1264 1259 1252 1247 1243 1242 1245 1247 1250 1253 1256 1258 1260 1262 1264 1264 1265 1265 1265 1265 1265 1264 1262 1260 1256 1252 1248 1246 1245 1245 1245 1247 1250 1254 1257 1259 1262 1264 1264 1261 1259 1257 1255 1252 1249 1246 1243 1238 1233 1223 1213 1206 1196 1185 1175 1171 1155 1148 1135 1123 1113 1106 1098 1089 1084 1078 1072 1058 1048 1043 1027 1023 1020 1020 1023 1026 1028 1030 1033 1036 1042 1046 1052 1061 1068 1080 1089 1104 1122 1135 1144 1151 1150 1145 1135 1119 1111 1091 1076 1064 1057 1054 1050 1045 1034 1018 1012 1005 998 991 990 991 992 991 989 990 993 997 998 997 994 990 985 982 981 978 974 972 970 968 965 962 961 962 967 970 971 965 963 969 980 990 997 1003 1010 1011 1011 1008 1003 991 971 959 951 945 946 952 958 965 973 978 980 981 982 984 984 982 981 978 972 965 959 954 962 972 978 978 978 978 978 978 978 977 978 982 983 981 975 966 959
1353 1362 1367 1375 1385 1395 1405 1414 1424 1431 1438 1448 1458 1466 1472 1475 1479 1477 1477 1473 1471 1466 1468 1464 1458 1460 1457 1453 1453 1449 1444 1441 1438 1434 1431 1430 1426 1426 1423 1419 1412 1406 1405 1401 1395 1389 1385 1382 1379 1375 1371 1367 1367 1366 1359 1355 1351 1349 1346 1341 1335 1331 1325 1321 1310 1301 1296 1294 1293 1291 1285 1281 1279 1274 1269 1262 1256 1252 1251 1254 1256 1259 1262 1265 1267 1268 1270 1271 1271 1271 1271 1271 1271 1270 1268 1265 1260 1254 1249 1245 1242 1240 1240 1240 1242 1245 1250 1253 1255 1258 1260 1259 1256 1255 1255 1255 1252 1249 1247 1244 1240 1235 1225 1216 1208 1197 1186 1177 1173 1153 1146 1132 1120 1111 1105 1097 1088 1084 1080 1076 1065 1057 1052 1032 1027 1020 1017 1017 1016 1015 1016 1019 1023 1030 1035 1042 1051 1057 1070 1080 1097 1116 1128 1137 1144 1144 1141 1133 1115 1109 1088 1074 1062 1053 1048 1042 1035 1025 1013 1008 1002 994 988 988 989 990 989 987 988 991 996 998 998 996 993 989 987 986 983 979 977 975 972 969 964 959 957 962 965 966 961 959 965 975 985 992 998 1005 1008 1008 1001 995 982 964 955 948 941 942 949 954 959 967 973 976 978 981 984 983 981 978 974 969 964 960 956 961 968 973 972 971 972 973 975 977 979 981 985 987 985 981 974 966
1358 1367 1372 1379 1389 1399 1410 1418 1428 1436 1444 1455 1466 1474 1482 1485 1488 1487 1485 1481 1477 1472 1472 1468 1465 1466 1464 1461 1462 1457 1452 1448 1446 1441 1436 1433 1429 1425 1423 1420 1415 1411 1405 1400 1395 1391 1388 1386 1385 1383 1380 1376 1376 1375 1368 1363 1359 1357 1354 1349 1343 1339 1334 1330 1317 1307 1304 1303 1302 1301 1295 1291 1289 1284 1279 1272 1266 1262 1260 1263 1265 1268 1271 1275 1277 1277 1278 1278 1278 1278 1278 1277 1277 1276 1273 1268 1260 1253 1247 1242 1238 1236 1236 1235 1237 1241 1247 1249 1251 1254 1256 1254 1252 1252 1254 1255 1253 1250 1248 1246 1243 1237 1227 1219 1211 1198 1187 1180 1176 1151 1145 1129 1118 1109 1104 1096 1088 1085 1083 1080 1072 1066 1062 1037 1031 1021 1015 1012 1006 1002 1003 1006 1011 1018 1024 1032 1041 1047 1060 1071 1091 1110 1121 1131 1138 1139 1138 1131 1111 1107 1086 1073 1060 1049 1043 1035 1025 1017 1008 1005 1000 991 986 986 987 988 987 985 986 990 995 998 1000 999 996 994 992 991 988 985 982 980 977 974 966 957 953 958 961 962 957 955 961 970 980 987 993 1001 1006 1006 994 987 973 958 951 945 938 939 946 950 954 961 968 972 976 980 984 983 980 976 971 967 963 961 958 961 965 968 967 964 966 969 973 977 981 985 989 992 990 987 982 973
1363 1372 1378 1385 1392 1400 1409 1420 1429 1438 1450 1463 1473 1482 1492 1496 1499 1498 1495 1489 1484 1480 1477 1474 1473 1472 1470 1470 1471 1465 1460 1457 1454 1449 1443 1440 1435 1430 1427 1426 1422 1417 1412 1407 1401 1397 1393 1391 1390 1387 1384 1380 1379 1378 1372 1368 1364 1361 1357 1352 1345 1341 1337 1333 1322 1314 1312 1311 1310 1308 1303 1299 1297 1293 1288 1281 1275 1271 1270 1272 1273 1275 1278 1280 1282 1282 1282 1281 1281 1280 1279 1277 1276 1274 1269 1263 1255 1247 1241 1236 1232 1230 1230 1229 1230 1234 1239 1241 1242 1245 1247 1245 1244 1244 1246 1248 1246 1243 1241 1239 1236 1231 1222 1215 1207 1195 1184 1177 1172 1149 1143 1129 1119 1111 1106 1097 1089 1086 1084 1081 1076 1072 1068 1043 1036 1025 1017 1012 1004 998 997 998 1002 1009 1016 1024 1034 1041 1053 1065 1085 1103 1113 1123 1130 1132 1131 1125 1105 1100 1080 1068 1055 1043 1036 1027 1017 1009 1002 1000 996 987 983 983 985 986 985 984 986 990 995 998 1000 1000 998 997 995 994 991 987 985 982 980 976 967 956 950 954 956 957 953 950 957 965 975 982 988 996 1002 1002 987 979 964 952 947 942 934 935 943 946 949 956 964 968 973 978 984 983 978 973 968 964 962 961 959 960 961 963 961 957 960 964 970 977 983 988 992 996 994 993 990 980
1368 1375 1382 1389 1396 1404 1414 1425 1434 1444 1456 1470 1481 1491 1502 1508 1510 1509 1505 1499 1493 1488 1484 1482 1481 1478 1476 1476 1478 1473 1469 1464 1462 1457 1451 1447 1442 1438 1433 1434 1429 1424 1420 1414 1408 1403 1399 1397 1395 1392 1388 1384 1383 1382 1377 1373 1369 1366 1361 1355 1348 1343 1340 1337 1328 1322 1320 1319 1318 1316 1311 1308 1306 1302 1297 1291 1285 1281 1280 1281 1282 1283 1285 1286 1287 1287 1286 1285 1284 1283 1281 1278 1275 1272 1266 1258 1250 1242 1235 1231 1227 1225 1224 1223 1224 1228 1231 1233 1234 1237 1239 1237 1236 1237 1239 1241 1239 1237 1235 1233 1230 1225 1217 1211 1203 1192 1182 1174 1168 1147 1142 1129 1121 1113 1108 1099 1091 1088 1085 1083 1080 1078 1075 1050 1041 1030 1020 1013 1003 994 991 991 993 1000 1008 1016 1027 1035 1047 1060 1080 1096 1106 1115 1123 1125 1125 1119 1100 1093 1074 1063 1050 1038 1030 1019 1009 1002 996 995 992 984 980 981 983 984 984 984 986 990 995 999 1001 1002 1000 1000 999 998 994 990 988 985 983 979 968 955 947 951 952 953 949 946 953 961 970 977 983 991 999 998 980 971 956 947 943 939 931 932 940 943 944 951 960 965 971 977 984 983 977 970 965 961 961 962 961 959 958 958 955 950 954 960 968 977 986 992 996 1000 999 999 999 987
1366 1372 1380 1390 1400 1409 1419 1430 1440 1449 1463 1477 1489 1501 1512 1520 1522 1519 1514 1508 1503 1497 1492 1491 1490 1486 1483 1483 1484 1480 1477 1472 1470 1466 1460 1455 1450 1446 1440 1441 1436 1431 1427 1421 1415 1408 1405 1402 1399 1396 1392 1388 1386 1385 1381 1378 1374 1370 1364 1358 1350 1345 1343 1340 1333 1329 1328 1327 1326 1322 1318 1316 1314 1311 1306 1300 1294 1290 1289 1290 1290 1290 1291 1291 1291 1291 1290 1288 1287 1285 1281 1277 1273 1268 1260 1251 1243 1235 1228 1225 1221 1219 1217 1216 1217 1220 1222 1223 1224 1226 1228 1227 1227 1228 1229 1230 1229 1227 1225 1222 1219 1214 1208 1202 1196 1186 1176 1168 1161 1144 1140 1131 1125 1117 1112 1102 1093 1089 1084 1082 1082 1082 1079 1058 1047 1038 1026 1019 1008 998 992 988 988 994 1002 1011 1023 1033 1044 1058 1076 1088 1096 1105 1113 1115 1115 1108 1091 1080 1064 1053 1040 1029 1021 1012 1004 997 989 988 986 980 977 978 981 983 985 987 990 993 997 1000 1001 1002 1001 1000 998 997 991 985 983 981 979 976 967 955 948 949 947 950 947 943 949 957 965 971 977 983 990 989 975 967 953 944 938 934 927 929 937 941 944 951 960 966 974 980 985 982 973 964 959 957 958 958 956 955 954 955 954 953 958 965 974 982 990 997 1002 1006 1006 1007 1007 997
1370 1376 1384 1394 1404 1414 1424 1435 1444 1454 1468 1482 1495 1507 1522 1532 1535 1529 1521 1515 1510 1505 1501 1500 1498 1494 1491 1490 1491 1488 1485 1481 1478 1475 1469 1463 1458 1454 1449 1446 1442 1437 1432 1426 1422 1414 1411 1408 1404 1400 1397 1392 1389 1389 1386 1383 1379 1375 1368 1361 1353 1348 1347 1344 1339 1336 1336 1335 1334 1329 1326 1325 1323 1320 1315 1310 1304 1300 1299 1300 1298 1298 1298 1296 1295 1295 1294 1292 1290 1287 1281 1276 1271 1264 1255 1245 1236 1228 1222 1219 1216 1213 1210 1209 1210 1212 1213 1214 1215 1216 1217 1218 1218 1219 1220 1220 1220 1217 1215 1212 1208 1204 1199 1194 1189 1181 1171 1163 1154 1142 1139 1134 1130 1122 1117 1106 1096 1091 1084 1082 1084 1086 1084 1066 1054 1046 1033 1025 1014 1002 993 985 984 988 997 1006 1019 1032 1042 1056 1072 1081 1086 1095 1104 1106 1105 1097 1082 1067 1054 1043 1030 1020 1013 1005 999 992 982 981 980 976 975 976 980 982 986 990 994 997 999 1001 1002 1003 1002 1001 998 996 988 981 979 977 976 974 966 956 949 948 942 947 945 941 945 953 960 966 971 976 981 980 971 963 950 941 934 929 924 927 934 939 944 952 960 968 977 984 986 981 969 959 954 953 955 955 952 951 951 953 954 956 963 971 980 988 995 1002 1008 1012 1013 1015 1015 1007
1374 1380 1389 1398 1406 1416 1428 1437 1447 1459 1473 1486 1500 1513 1527 1539 1542 1534 1526 1520 1516 1512 1510 1508 1504 1502 1499 1498 1497 1495 1493 1489 1487 1484 1478 1472 1466 1462 1457 1452 1447 1441 1436 1432 1428 1423 1420 1416 1410 1405 1403 1397 1395 1392 1389 1386 1381 1377 1371 1365 1358 1352 1351 1347 1342 1339 1339 1337 1336 1330 1328 1327 1325 1322 1317 1312 1306 1303 1301 1301 1299 1298 1298 1295 1293 1292 1291 1288 1285 1282 1277 1272 1265 1258 1248 1239 1231 1223 1218 1215 1212 1209 1206 1205 1206 1207 1207 1207 1208 1208 1209 1209 1210 1211 1211 1211 1211 1208 1205 1202 1198 1194 1190 1186 1182 1175 1166 1158 1148 1139 1136 1133 1130 1123 1119 1109 1100 1095 1089 1087 1090 1092 1090 1074 1062 1054 1040 1031 1018 1005 994 984 981 982 991 999 1014 1029 1038 1052 1066 1073 1076 1083 1092 1094 1093 1085 1073 1056 1045 1034 1022 1013 1006 999 994 987 976 975 974 972 972 974 979 982 987 993 997 1000 1001 1002 1003 1003 1002 1001 997 994 984 976 974 973 972 971 965 956 950 947 937 943 942 938 941 949 955 960 964 969 972 971 966 959 947 937 929 924 920 924 931 937 944 952 960 970 980 987 987 980 965 953 948 949 952 951 948 946 947 951 954 959 967 976 986 993 1000 1007 1014 1018 1020 1023 1023 1018
1376 1383 1391 1400 1408 1417 1427 1440 1450 1462 1475 1487 1499 1512 1523 1528 1532 1528 1521 1516 1518 1518 1514 1512 1510 1509 1507 1507 1503 1502 1501 1497 1495 1492 1487 1480 1475 1470 1465 1459 1452 1446 1440 1439 1434 1432 1429 1424 1416 1411 1409 1403 1401 1396 1393 1389 1384 1380 1375 1369 1363 1357 1355 1351 1346 1343 1342 1340 1338 1332 1330 1329 1328 1325 1320 1314 1309 1306 1304 1303 1300 1299 1298 1294 1291 1290 1288 1284 1281 1278 1273 1268 1259 1252 1242 1233 1226 1219 1215 1212 1209 1206 1203 1202 1202 1202 1201 1201 1201 1201 1201 1201 1202 1203 1202 1202 1202 1199 1196 1193 1189 1185 1182 1178 1175 1170 1162 1153 1143 1136 1133 1132 1131 1125 1122 1113 1105 1100 1094 1092 1096 1098 1096 1082 1071 1062 1048 1037 1023 1009 995 983 978 977 985 993 1010 1026 1035 1048 1060 1065 1066 1072 1081 1083 1082 1074 1065 1045 1037 1026 1014 1006 999 993 990 982 970 969 969 969 970 972 978 982 988 996 1001 1003 1003 1003 1004 1003 1003 1001 997 993 981 972 970 970 969 968 964 957 952 946 933 940 940 935 938 945 951 955 958 962 963 963 962 955 944 934 925 919 917 922 929 936 944 952 960 972 983 990 989 979 962 948 943 946 949 947 944 942 944 949 954 962 972 982 992 999 1005 1013 1020 1025 1028 1031 1032 1029
1377 1385 1392 1396 1403 1412 1422 1441 1453 1467 1478 1487 1497 1507 1514 1516 1519 1518 1513 1510 1512 1513 1512 1514 1515 1515 1515 1515 1511 1510 1509 1503 1502 1499 1494 1489 1483 1478 1471 1465 1458 1452 1448 1446 1440 1441 1438 1432 1422 1417 1415 1409 1407 1399 1396 1391 1386 1382 1378 1373 1368 1361 1359 1354 1349 1345 1343 1340 1338 1332 1330 1329 1328 1325 1320 1313 1309 1307 1304 1301 1298 1297 1295 1291 1286 1284 1282 1277 1274 1270 1267 1262 1251 1245 1235 1228 1222 1216 1213 1210 1207 1204 1201 1200 1200 1198 1196 1196 1195 1194 1194 1194 1195 1195 1194 1194 1194 1191 1188 1185 1181 1176 1173 1170 1168 1164 1158 1149 1139 1132 1129 1128 1127 1123 1122 1116 1112 1109 1105 1104 1107 1108 1104 1091 1082 1070 1057 1042 1026 1011 997 985 977 974 978 984 1004 1019 1029 1041 1051 1054 1054 1058 1064 1067 1067 1062 1056 1041 1032 1021 1010 1002 995 989 985 978 968 966 966 968 970 974 980 983 988 995 1000 1002 1003 1004 1005 1004 1002 999 993 988 977 967 964 965 965 964 961 957 953 947 934 936 934 931 936 943 949 952 956 960 961 961 960 954 944 935 928 923 920 921 923 928 936 943 952 963 974 979 978 969 954 942 938 942 946 946 944 944 947 951 955 962 971 980 989 995 1001 1010 1017 1023 1027 1031 1033 1032
1377 1385 1392 1398 1406 1415 1425 1444 1456 1469 1481 1492 1501 1505 1499 1496 1497 1502 1501 1501 1502 1503 1506 1510 1513 1517 1517 1519 1519 1517 1513 1509 1504 1505 1503 1497 1492 1486 1482 1476 1470 1466 1461 1456 1451 1450 1447 1441 1429 1423 1421 1415 1413 1402 1399 1393 1388 1385 1382 1378 1373 1366 1363 1358 1352 1348 1345 1341 1338 1333 1331 1330 1329 1326 1320 1312 1309 1308 1304 1300 1296 1295 1293 1288 1282 1279 1277 1271 1267 1263 1261 1257 1244 1239 1229 1223 1218 1214 1211 1208 1205 1202 1200 1198 1198 1195 1192 1192 1190 1188 1188 1188 1188 1188 1187 1186 1186 1183 1180 1177 1173 1168 1165 1163 1161 1159 1154 1145 1136 1128 1125 1124 1123 1121 1122 1120 1119 1118 1116 1117 1118 1118 1112 1100 1093 1079 1067 1047 1029 1013 1000 988 977 971 971 975 998 1013 1024 1034 1042 1044 1042 1044 1048 1051 1052 1050 1047 1037 1028 1017 1007 999 992 986 981 974 966 963 963 967 971 976 982 985 989 995 1000 1002 1004 1006 1007 1006 1001 998 989 984 973 962 959 961 962 961 959 957 954 948 936 932 929 928 935 942 947 950 954 958 959 960 958 953 945 937 931 927 923 920 918 921 928 935 944 955 965 969 968 960 947 937 934 939 944 945 945 947 950 953 957 963 970 978 986 992 998 1007 1014 1021 1027 1031 1034 1036
1381 1387 1394 1402 1411 1421 1430 1441 1452 1464 1476 1486 1495 1495 1489 1487 1491 1497 1495 1494 1492 1496 1501 1509 1514 1518 1520 1523 1525 1523 1520 1518 1513 1511 1509 1504 1500 1494 1489 1484 1480 1476 1470 1465 1461 1455 1452 1445 1433 1427 1424 1419 1416 1406 1403 1396 1391 1387 1383 1379 1374 1368 1364 1359 1353 1349 1345 1340 1336 1331 1328 1327 1326 1323 1318 1311 1308 1307 1302 1298 1294 1292 1290 1285 1279 1275 1271 1265 1260 1255 1252 1249 1236 1232 1223 1218 1214 1211 1209 1207 1204 1201 1199 1197 1197 1194 1190 1190 1188 1186 1185 1185 1184 1184 1182 1181 1180 1177 1173 1170 1166 1161 1158 1157 1156 1155 1150 1142 1134 1126 1124 1123 1122 1121 1124 1124 1125 1125 1125 1126 1126 1124 1117 1106 1100 1084 1073 1050 1031 1014 1001 989 976 968 965 968 991 1005 1017 1026 1032 1033 1030 1030 1033 1036 1038 1038 1038 1032 1023 1013 1003 995 988 982 977 970 963 960 960 965 971 978 984 987 989 994 999 1001 1004 1007 1009 1007 1000 996 985 979 968 956 953 956 959 958 956 957 955 949 937 928 923 925 933 941 945 948 952 956 957 958 956 952 945 938 933 931 926 918 913 914 919 926 935 946 954 957 956 949 939 931 929 936 941 944 947 950 953 955 959 963 968 975 981 986 992 1001 1009 1016 1024 1029 1034 1037
1377 1383 1390 1398 1407 1417 1426 1437 1448 1459 1469 1475 1482 1485 1484 1481 1484 1489 1490 1492 1491 1497 1501 1510 1514 1517 1520 1525 1525 1529 1527 1527 1524 1518 1512 1508 1506 1501 1496 1493 1489 1485 1479 1474 1471 1461 1457 1449 1438 1431 1428 1423 1420 1410 1407 1399 1395 1390 1385 1381 1376 1370 1366 1361 1355 1350 1346 1340 1335 1329 1326 1324 1323 1321 1316 1310 1307 1306 1301 1296 1292 1290 1288 1282 1276 1271 1266 1259 1253 1247 1244 1242 1228 1225 1217 1213 1210 1208 1208 1206 1204 1201 1198 1197 1196 1193 1189 1188 1186 1184 1182 1182 1181 1181 1178 1176 1175 1171 1167 1164 1160 1154 1152 1151 1151 1151 1147 1140 1133 1125 1123 1122 1122 1122 1126 1129 1131 1133 1135 1136 1135 1131 1123 1112 1108 1090 1079 1053 1033 1016 1003 991 976 966 959 961 985 998 1010 1018 1022 1022 1018 1016 1018 1021 1024 1027 1030 1028 1019 1009 1000 992 985 979 973 967 961 957 957 964 971 980 986 989 990 994 998 1001 1005 1009 1011 1008 1000 995 982 975 964 951 948 952 956 955 953 957 957 950 938 924 918 922 932 940 944 946 950 955 956 956 954 951 946 940 936 935 929 917 908 907 911 917 926 937 944 945 944 939 932 925 925 933 939 943 949 954 957 958 961 964 966 972 976 980 987 996 1005 1012 1022 1028 1034 1039
1375 1382 1389 1395 1405 1414 1424 1434 1444 1454 1463 1466 1471 1477 1479 1477 1478 1483 1485 1490 1491 1496 1499 1508 1514 1517 1522 1526 1531 1536 1535 1534 1532 1525 1518 1513 1511 1508 1502 1499 1496 1492 1487 1483 1479 1465 1459 1451 1441 1434 1430 1426 1422 1415 1410 1402 1399 1392 1386 1381 1376 1370 1366 1361 1355 1349 1345 1339 1332 1326 1321 1319 1318 1316 1312 1308 1305 1304 1299 1293 1289 1286 1284 1280 1274 1268 1260 1252 1246 1238 1234 1231 1220 1217 1211 1208 1206 1206 1206 1205 1204 1202 1199 1198 1197 1194 1192 1191 1189 1187 1185 1185 1184 1183 1179 1175 1173 1169 1164 1161 1156 1151 1149 1148 1148 1148 1146 1140 1136 1130 1129 1129 1129 1129 1132 1134 1136 1137 1138 1137 1133 1128 1120 1106 1101 1087 1072 1048 1030 1014 1001 989 977 968 961 960 977 985 994 1000 1004 1006 1005 1005 1008 1013 1018 1022 1025 1024 1017 1009 1001 993 984 976 968 961 957 956 960 968 975 982 988 992 994 998 1002 1004 1006 1008 1007 1003 996 990 979 972 961 947 943 946 949 948 947 950 950 944 934 922 917 921 931 939 943 945 949 953 953 953 950 946 941 935 932 931 925 913 904 902 906 911 919 928 936 939 941 938 934 930 931 938 943 945 950 953 955 956 958 960 962 967 971 975 982 992 1001 1009 1020 1026 1031 1037
1370 1376 1384 1392 1401 1412 1421 1431 1440 1449 1458 1463 1468 1473 1474 1477 1477 1482 1488 1491 1491 1490 1495 1505 1511 1515 1522 1530 1537 1543 1541 1538 1532 1526 1522 1518 1512 1509 1508 1504 1501 1498 1495 1492 1486 1470 1462 1454 1445 1437 1432 1429 1425 1420 1414 1406 1403 1395 1387 1381 1376 1371 1366 1362 1356 1349 1345 1338 1330 1323 1317 1314 1313 1311 1309 1306 1304 1302 1297 1291 1286 1283 1281 1278 1273 1265 1255 1246 1239 1229 1224 1221 1212 1209 1205 1204 1203 1204 1204 1205 1205 1203 1200 1199 1198 1196 1195 1194 1193 1190 1189 1188 1188 1186 1181 1175 1172 1167 1161 1158 1152 1148 1147 1146 1146 1146 1145 1141 1139 1136 1136 1137 1137 1137 1139 1140 1141 1142 1141 1138 1132 1126 1117 1101 1094 1084 1065 1043 1027 1012 999 988 979 971 963 960 969 972 978 982 987 991 993 995 999 1006 1013 1018 1020 1020 1016 1010 1003 994 983 973 963 956 954 955 963 972 980 984 990 996 999 1003 1007 1008 1008 1007 1004 999 992 986 977 970 958 944 938 940 943 942 941 944 944 939 930 920 916 921 930 938 943 945 948 951 951 950 947 941 936 930 928 927 921 909 900 898 901 905 913 920 928 933 938 937 936 935 938 944 947 948 951 952 953 954 956 957 958 963 966 970 978 989 998 1006 1018 1024 1029 1035
1366 1371 1379 1388 1398 1408 1418 1428 1436 1445 1453 1459 1464 1469 1470 1472 1475 1480 1485 1489 1488 1487 1492 1504 1510 1516 1524 1532 1540 1547 1546 1544 1537 1531 1527 1522 1518 1513 1513 1509 1505 1504 1499 1496 1491 1475 1466 1458 1450 1442 1437 1434 1430 1425 1419 1411 1408 1400 1391 1384 1379 1374 1369 1364 1358 1350 1347 1339 1330 1322 1316 1312 1310 1308 1306 1304 1302 1299 1293 1287 1282 1279 1276 1274 1269 1260 1249 1240 1233 1222 1216 1214 1206 1202 1200 1199 1199 1201 1201 1203 1204 1202 1199 1198 1198 1197 1196 1196 1195 1192 1191 1190 1190 1188 1182 1174 1171 1166 1159 1156 1150 1147 1146 1145 1145 1145 1145 1143 1142 1142 1142 1144 1144 1144 1145 1145 1145 1145 1143 1138 1130 1123 1113 1095 1087 1080 1058 1038 1024 1010 997 986 980 973 964 959 960 959 961 964 970 975 980 984 990 999 1008 1014 1015 1016 1014 1011 1004 994 982 970 958 950 950 954 966 976 984 986 991 999 1003 1008 1011 1011 1010 1006 1000 994 988 982 975 967 955 940 933 934 936 935 935 937 936 932 925 918 915 920 929 937 942 945 947 949 948 946 942 935 929 923 921 921 914 904 897 895 897 900 906 912 921 929 938 939 942 944 948 953 954 952 952 949 949 949 951 951 953 957 960 965 974 986 995 1003 1015 1022 1026 1030
1362 1368 1375 1381 1391 1401 1411 1423 1432 1441 1449 1454 1458 1462 1464 1466 1471 1476 1479 1482 1483 1486 1493 1505 1510 1517 1523 1530 1539 1546 1550 1546 1539 1535 1530 1526 1522 1518 1516 1512 1509 1509 1503 1499 1494 1480 1470 1463 1455 1448 1443 1439 1435 1431 1424 1416 1413 1405 1395 1388 1382 1377 1372 1367 1360 1352 1349 1340 1330 1322 1315 1310 1308 1306 1304 1302 1300 1297 1290 1283 1278 1275 1272 1270 1265 1256 1244 1234 1227 1215 1209 1207 1200 1196 1195 1195 1196 1198 1199 1202 1203 1202 1199 1198 1198 1198 1198 1198 1197 1195 1194 1193 1192 1190 1183 1174 1170 1165 1157 1154 1149 1146 1145 1144 1144 1144 1145 1145 1146 1148 1149 1151 1151 1151 1151 1151 1150 1149 1146 1139 1129 1121 1110 1090 1081 1077 1051 1034 1022 1009 995 985 981 975 966 959 952 946 945 946 953 960 968 974 981 992 1003 1010 1010 1012 1012 1012 1006 995 981 967 953 945 946 954 969 981 988 988 993 1003 1008 1013 1015 1015 1012 1006 997 990 984 978 973 965 952 937 929 928 929 929 929 931 929 926 920 916 915 920 929 936 942 946 947 948 946 943 938 930 922 916 915 915 908 900 894 892 893 896 900 904 914 926 938 941 948 954 959 962 961 957 953 946 945 945 946 946 949 952 955 960 971 984 993 1001 1013 1020 1023 1025
1357 1365 1372 1375 1383 1394 1405 1417 1427 1436 1444 1449 1452 1456 1459 1461 1466 1471 1473 1477 1477 1481 1489 1502 1508 1514 1522 1530 1540 1547 1550 1546 1544 1541 1537 1532 1527 1524 1521 1518 1515 1512 1508 1503 1497 1485 1475 1468 1461 1456 1451 1447 1442 1438 1430 1422 1419 1411 1402 1395 1389 1383 1378 1372 1365 1356 1353 1343 1332 1325 1319 1313 1309 1306 1303 1299 1296 1293 1285 1276 1272 1268 1264 1261 1257 1249 1238 1229 1222 1213 1207 1205 1199 1194 1192 1192 1192 1193 1194 1197 1197 1196 1195 1195 1195 1196 1196 1197 1196 1195 1193 1192 1190 1187 1181 1174 1171 1168 1162 1160 1156 1152 1151 1151 1151 1151 1152 1152 1153 1153 1154 1155 1155 1155 1155 1155 1153 1149 1145 1137 1126 1117 1105 1087 1080 1076 1051 1036 1023 1011 998 989 984 978 970 963 956 951 948 947 951 955 960 965 971 981 992 999 1001 1004 1005 1005 1001 990 978 963 950 942 943 953 967 978 984 985 990 999 1004 1009 1010 1009 1005 998 990 983 977 972 969 963 951 938 929 926 925 924 925 927 927 925 921 918 915 918 925 932 939 942 942 941 938 935 929 922 915 909 909 909 902 896 891 889 890 893 898 903 912 924 936 940 949 956 962 965 963 959 954 946 944 942 942 942 945 948 951 955 966 979 987 995 1008 1016 1018 1019
1350 1358 1365 1369 1377 1387 1398 1410 1420 1430 1437 1442 1447 1450 1454 1457 1461 1467 1473 1474 1473 1477 1485 1498 1504 1509 1517 1527 1537 1544 1545 1546 1547 1547 1542 1538 1533 1529 1525 1523 1520 1515 1513 1508 1501 1490 1481 1474 1468 1464 1460 1455 1450 1445 1436 1429 1426 1418 1410 1403 1396 1389 1384 1377 1370 1360 1357 1347 1335 1328 1323 1316 1310 1307 1302 1296 1293 1290 1281 1270 1266 1262 1257 1253 1249 1242 1232 1224 1218 1211 1206 1203 1198 1193 1190 1189 1189 1188 1190 1192 1192 1191 1191 1192 1193 1194 1195 1196 1196 1195 1193 1191 1189 1185 1179 1175 1173 1171 1168 1167 1163 1159 1158 1158 1158 1159 1160 1160 1160 1159 1159 1159 1159 1159 1159 1159 1156 1150 1144 1135 1123 1114 1101 1085 1080 1075 1052 1039 1025 1013 1002 993 987 981 974 968 961 957 951 948 949 950 953 956 962 971 981 989 993 997 998 999 996 986 976 960 947 940 941 952 965 975 981 982 987 995 1001 1005 1006 1004 998 991 983 976 970 966 966 961 951 939 930 924 921 919 921 924 925 925 922 920 916 917 921 928 936 938 938 935 931 927 921 914 908 903 903 903 897 892 889 887 887 890 897 902 911 922 934 940 950 959 965 968 966 962 956 946 943 940 939 939 941 944 947 950 961 974 982 990 1004 1012 1013 1013
1343 1350 1357 1364 1371 1380 1391 1403 1413 1423 1430 1436 1440 1444 1449 1451 1454 1460 1466 1468 1469 1474 1482 1493 1500 1506 1515 1525 1535 1541 1543 1547 1549 1545 1541 1541 1538 1532 1528 1525 1524 1520 1515 1510 1505 1493 1485 1478 1473 1470 1466 1460 1456 1451 1442 1435 1432 1424 1417 1409 1402 1395 1389 1381 1374 1364 1361 1350 1338 1330 1326 1318 1312 1308 1301 1295 1291 1288 1278 1266 1262 1258 1252 1247 1243 1236 1227 1219 1214 1209 1204 1201 1196 1191 1187 1186 1185 1184 1185 1187 1186 1186 1186 1188 1190 1191 1193 1194 1195 1194 1192 1189 1186 1182 1177 1175 1174 1174 1173 1173 1170 1165 1164 1164 1165 1166 1168 1167 1167 1165 1164 1163 1163 1163 1163 1162 1158 1150 1143 1132 1120 1110 1096 1082 1079 1074 1052 1042 1026 1015 1005 997 990 984 978 972 966 962 954 949 947 945 946 947 952 960 969 978 984 989 990 992 991 980 973 957 944 937 939 951 962 971 976 978 983 990 995 999 999 996 989 982 975 968 962 960 962 959 952 941 931 923 917 915 918 922 925 927 925 923 916 915 915 922 931 932 931 926 921 916 910 905 901 897 897 897 892 889 886 885 885 889 898 905 913 921 929 937 946 954 961 965 966 964 958 949 944 940 936 936 938 941 943 946 954 965 973 982 995 1004 1006 1007
1336 1343 1350 1358 1366 1375 1383 1396 1406 1415 1424 1429 1434 1436 1442 1447 1448 1453 1458 1462 1468 1473 1479 1488 1496 1506 1516 1525 1531 1537 1542 1544 1545 1544 1542 1537 1535 1529 1527 1526 1525 1523 1517 1513 1508 1496 1489 1483 1478 1476 1473 1466 1462 1457 1448 1441 1439 1430 1424 1416 1408 1401 1394 1386 1379 1368 1365 1353 1341 1333 1330 1321 1314 1309 1301 1294 1290 1286 1276 1263 1259 1255 1247 1241 1237 1231 1223 1215 1210 1207 1203 1200 1195 1190 1185 1184 1182 1180 1181 1182 1181 1181 1182 1185 1188 1189 1192 1193 1194 1194 1191 1188 1184 1179 1175 1176 1176 1178 1179 1179 1177 1172 1171 1171 1172 1174 1176 1175 1174 1171 1169 1168 1168 1167 1167 1166 1161 1151 1142 1130 1118 1107 1092 1080 1079 1073 1053 1045 1028 1017 1009 1001 993 988 982 977 971 968 957 950 945 940 939 939 943 950 958 967 976 981 983 986 986 975 970 954 941 935 938 950 959 967 971 975 979 985 990 993 993 988 981 974 967 960 954 954 958 957 953 943 933 923 914 911 915 921 926 929 929 927 917 913 910 917 926 927 924 918 911 905 900 896 894 892 891 891 888 886 884 883 884 888 900 908 915 920 925 934 942 950 957 962 966 966 961 952 946 940 934 934 936 939 940 942 948 957 964 974 987 997 999 1001
1330 1336 1344 1352 1361 1369 1377 1389 1399 1408 1417 1422 1426 1430 1435 1440 1443 1446 1452 1456 1462 1467 1474 1484 1492 1501 1511 1519 1524 1531 1535 1538 1542 1540 1539 1537 1535 1529 1530 1528 1523 1519 1514 1512 1506 1496 1490 1485 1481 1479 1476 1469 1465 1460 1453 1447 1444 1435 1429 1421 1412 1405 1397 1390 1383 1373 1369 1355 1343 1335 1332 1324 1317 1312 1305 1298 1293 1289 1280 1270 1265 1259 1251 1244 1240 1234 1224 1215 1209 1206 1203 1199 1193 1188 1183 1182 1181 1178 1177 1176 1175 1174 1174 1177 1180 1181 1184 1184 1185 1185 1182 1178 1173 1169 1167 1170 1172 1174 1176 1178 1177 1175 1176 1177 1179 1181 1182 1181 1180 1176 1174 1172 1171 1169 1166 1164 1158 1149 1140 1129 1118 1108 1094 1083 1080 1073 1056 1048 1031 1020 1013 1006 1000 996 992 988 984 982 972 965 958 948 944 943 944 947 951 958 966 970 972 974 974 965 961 947 936 931 934 945 953 960 965 970 974 980 984 986 984 978 970 962 956 950 944 945 949 948 946 937 929 919 910 908 912 918 923 928 930 928 918 914 909 914 921 921 917 911 904 898 894 891 890 889 888 887 885 884 883 882 883 887 899 907 913 917 920 930 938 945 952 958 963 965 961 953 947 940 932 931 933 936 936 938 943 950 958 967 980 989 991 994
1324 1330 1337 1346 1355 1365 1373 1385 1393 1401 1409 1415 1419 1423 1428 1433 1438 1442 1447 1453 1455 1462 1468 1479 1488 1497 1506 1513 1518 1524 1527 1531 1537 1537 1537 1536 1535 1530 1530 1527 1521 1517 1512 1512 1506 1497 1492 1487 1484 1482 1479 1472 1468 1464 1459 1454 1449 1440 1434 1426 1417 1409 1401 1395 1387 1378 1373 1357 1345 1337 1335 1328 1321 1316 1309 1303 1297 1292 1284 1278 1272 1264 1255 1248 1243 1237 1226 1215 1209 1206 1203 1198 1191 1186 1182 1181 1180 1176 1173 1171 1170 1167 1167 1170 1173 1174 1176 1176 1177 1177 1174 1168 1162 1159 1160 1165 1168 1170 1174 1177 1178 1178 1181 1184 1186 1188 1188 1188 1186 1182 1179 1177 1174 1171 1165 1162 1156 1147 1139 1129 1118 1109 1096 1086 1082 1073 1060 1051 1035 1024 1018 1012 1007 1005 1002 1000 997 996 987 980 972 956 950 947 945 944 945 949 956 959 961 963 963 955 952 941 932 928 931 940 947 954 959 965 970 975 979 980 975 968 959 951 946 941 935 936 940 940 939 932 925 916 907 906 910 916 921 928 931 929 920 915 909 912 916 915 911 905 898 892 888 887 887 886 885 884 883 882 882 882 882 886 898 906 912 914 916 927 935 941 948 954 960 964 962 955 949 940 930 929 931 933 932 934 938 944 952 961 973 982 984 988
1318 1323 1331 1340 1348 1358 1367 1379 1387 1394 1401 1408 1412 1416 1420 1426 1431 1436 1442 1447 1450 1456 1464 1476 1483 1492 1500 1508 1512 1519 1523 1527 1533 1535 1534 1533 1530 1526 1526 1523 1521 1519 1518 1516 1510 1497 1493 1488 1486 1484 1481 1475 1471 1468 1464 1459 1454 1444 1438 1431 1422 1413 1405 1399 1392 1383 1377 1360 1348 1340 1337 1332 1325 1319 1313 1307 1300 1295 1288 1285 1278 1268 1259 1251 1246 1239 1227 1215 1208 1205 1202 1197 1189 1184 1180 1179 1178 1174 1168 1166 1164 1160 1159 1162 1165 1166 1167 1168 1168 1168 1165 1157 1151 1149 1152 1160 1163 1166 1171 1175 1178 1181 1186 1190 1193 1194 1194 1194 1192 1187 1184 1181 1177 1172 1164 1159 1153 1145 1138 1129 1119 1110 1099 1089 1083 1074 1063 1054 1039 1027 1022 1018 1015 1014 1013 1013 1012 1011 1005 997 989 967 959 954 949 943 940 941 944 947 949 950 949 942 940 932 926 924 926 933 940 946 952 959 965 970 974 973 965 956 947 939 934 929 924 925 927 928 926 921 916 909 903 903 907 912 917 924 929 929 923 919 913 912 911 909 905 900 895 891 887 886 886 885 884 883 883 882 882 882 882 885 893 899 904 907 912 923 931 936 941 946 953 959 959 954 949 940 928 926 927 928 928 931 936 943 951 960 969 974 976 982
1309 1315 1322 1330 1338 1347 1356 1366 1373 1380 1387 1393 1397 1401 1408 1414 1422 1429 1436 1442 1449 1455 1462 1470 1478 1486 1494 1501 1507 1513 1517 1520 1523 1525 1526 1525 1523 1521 1518 1517 1514 1512 1509 1507 1504 1506 1506 1500 1494 1492 1489 1487 1483 1483 1480 1473 1468 1464 1455 1448 1439 1431 1422 1414 1406 1398 1391 1382 1373 1364 1355 1345 1336 1328 1321 1315 1308 1303 1297 1292 1286 1279 1272 1264 1256 1246 1237 1227 1216 1209 1203 1198 1193 1193 1188 1187 1182 1176 1174 1168 1161 1157 1159 1154 1158 1159 1159 1160 1160 1159 1157 1147 1140 1139 1145 1155 1159 1163 1169 1174 1178 1184 1191 1196 1200 1201 1201 1200 1198 1193 1189 1186 1180 1173 1163 1156 1150 1143 1137 1129 1120 1112 1102 1092 1085 1075 1067 1058 1043 1031 1026 1024 1023 1024 1025 1026 1027 1027 1023 1015 1006 978 968 962 953 943 935 933 933 935 937 938 935 930 928 924 921 920 922 927 933 939 946 954 961 965 969 966 956 945 935 927 922 918 914 914 915 916 914 910 907 903 900 901 905 908 914 921 927 929 926 924 918 912 907 903 899 896 893 890 887 886 886 885 884 883 883 883 882 882 882 884 888 892 896 901 908 919 927 932 935 938 946 954 956 954 949 940 927 924 924 924 925 929 934 942 951 960 966 967 969 976
1303 1309 1316 1324 1331 1340 1348 1357 1365 1373 1379 1385 1389 1393 1398 1405 1414 1422 1429 1436 1443 1450 1458 1465 1473 1481 1488 1495 1502 1508 1512 1516 1519 1521 1521 1520 1519 1517 1515 1514 1512 1509 1507 1505 1502 1505 1504 1500 1495 1493 1489 1488 1486 1488 1485 1478 1473 1469 1460 1452 1443 1436 1428 1420 1413 1405 1397 1389 1379 1370 1360 1351 1341 1334 1327 1320 1314 1308 1300 1292 1285 1279 1272 1265 1256 1246 1236 1227 1216 1210 1205 1199 1193 1189 1184 1181 1177 1170 1168 1163 1156 1154 1152 1151 1155 1153 1154 1158 1158 1154 1151 1145 1138 1135 1140 1146 1150 1154 1158 1162 1170 1178 1185 1192 1198 1203 1208 1208 1208 1207 1201 1195 1187 1180 1176 1168 1162 1157 1152 1148 1141 1133 1124 1113 1103 1094 1083 1071 1057 1046 1034 1032 1037 1041 1045 1047 1046 1046 1044 1033 1021 1007 992 979 968 959 950 947 941 934 927 925 924 922 921 919 923 919 918 922 928 933 942 947 951 957 957 950 941 932 925 920 916 910 909 905 900 900 904 905 902 898 896 898 899 903 905 911 919 922 924 923 917 910 904 897 892 889 887 885 884 883 885 888 884 881 879 881 881 881 881 881 881 880 879 881 886 893 901 909 916 924 933 942 950 954 948 940 932 924 919 915 916 921 928 936 944 951 949 951 958 968
1298 1303 1310 1317 1325 1332 1340 1349 1357 1364 1371 1376 1380 1385 1391 1398 1406 1414 1422 1430 1437 1445 1453 1461 1469 1476 1483 1490 1497 1503 1508 1513 1516 1517 1517 1516 1515 1514 1514 1513 1511 1508 1505 1502 1499 1501 1499 1496 1495 1493 1491 1491 1489 1486 1489 1483 1476 1469 1462 1452 1445 1438 1432 1427 1420 1412 1404 1395 1385 1376 1366 1357 1347 1340 1334 1327 1320 1313 1305 1297 1290 1283 1276 1268 1258 1247 1236 1228 1219 1213 1207 1200 1194 1188 1184 1181 1175 1168 1162 1160 1155 1151 1147 1144 1148 1146 1145 1149 1149 1146 1142 1135 1129 1128 1133 1139 1143 1148 1154 1158 1167 1173 1180 1187 1193 1200 1204 1206 1207 1204 1200 1195 1189 1182 1178 1173 1166 1164 1160 1157 1150 1143 1134 1124 1113 1102 1091 1080 1068 1057 1044 1047 1053 1057 1060 1062 1060 1059 1055 1045 1033 1021 1007 995 984 975 967 962 955 946 938 932 927 923 922 920 919 917 915 918 924 929 936 940 944 948 949 943 934 925 918 914 911 906 905 903 903 903 900 898 899 896 896 896 894 896 897 903 911 917 917 917 911 904 899 893 887 884 885 886 888 888 887 888 886 885 883 882 881 881 882 881 881 882 877 877 883 889 897 903 909 917 927 936 944 950 951 944 938 931 925 919 917 920 926 933 939 942 940 944 953 965
1293 1298 1305 1312 1319 1326 1332 1340 1348 1355 1362 1368 1372 1378 1385 1392 1399 1407 1416 1424 1432 1440 1449 1457 1465 1471 1478 1485 1492 1499 1504 1509 1511 1512 1513 1512 1512 1512 1512 1511 1509 1506 1502 1499 1496 1498 1495 1494 1495 1494 1491 1492 1491 1487 1487 1483 1477 1471 1464 1456 1448 1442 1437 1434 1427 1418 1410 1401 1391 1381 1371 1362 1355 1348 1342 1335 1327 1318 1310 1302 1295 1287 1279 1269 1260 1250 1241 1232 1223 1216 1209 1201 1194 1187 1185 1180 1174 1167 1161 1158 1156 1152 1146 1141 1142 1138 1136 1141 1140 1137 1134 1127 1121 1121 1126 1132 1137 1144 1153 1159 1167 1173 1179 1185 1192 1197 1198 1199 1202 1197 1196 1194 1188 1182 1180 1177 1171 1171 1168 1164 1158 1151 1143 1132 1122 1111 1099 1089 1079 1068 1057 1061 1068 1072 1074 1076 1073 1070 1065 1055 1045 1033 1021 1010 999 992 984 977 970 962 955 947 940 935 931 930 925 919 915 919 924 928 932 931 935 937 938 935 927 918 911 910 909 904 900 900 902 901 898 896 896 895 895 894 892 893 893 896 904 910 910 909 904 898 895 890 886 885 889 895 898 896 890 889 892 895 892 889 883 881 879 881 881 883 879 877 878 882 889 896 900 908 917 927 936 944 949 947 941 936 927 919 914 917 923 926 932 934 933 940 951 963
1288 1294 1301 1307 1313 1319 1325 1332 1339 1346 1353 1359 1365 1372 1379 1387 1394 1402 1410 1419 1428 1436 1445 1454 1461 1468 1474 1481 1488 1495 1500 1504 1506 1507 1508 1509 1510 1510 1510 1508 1505 1502 1499 1496 1494 1495 1494 1495 1496 1497 1496 1491 1489 1486 1482 1477 1476 1471 1464 1457 1451 1445 1440 1438 1432 1423 1414 1404 1394 1384 1376 1368 1362 1356 1350 1342 1335 1326 1317 1309 1301 1293 1283 1274 1265 1255 1246 1237 1228 1220 1213 1206 1198 1191 1186 1181 1174 1167 1161 1164 1161 1158 1152 1147 1139 1133 1130 1133 1131 1130 1127 1122 1117 1115 1120 1125 1132 1141 1149 1154 1162 1168 1174 1180 1185 1190 1189 1191 1194 1190 1190 1188 1183 1178 1177 1177 1177 1178 1173 1169 1164 1157 1149 1140 1130 1119 1107 1098 1088 1079 1070 1073 1079 1083 1085 1087 1083 1080 1074 1066 1056 1046 1034 1024 1013 1007 999 992 984 977 970 963 956 948 943 938 931 924 919 915 919 923 924 921 924 924 927 927 921 912 905 907 907 904 901 900 898 898 897 900 899 898 900 897 896 896 895 893 896 901 902 901 895 891 889 885 886 891 899 907 912 907 901 898 899 904 901 897 889 885 882 881 881 881 878 879 876 877 882 887 890 896 905 915 925 935 942 944 939 931 922 914 908 912 916 919 924 930 937 947 956 965
1283 1288 1295 1301 1307 1313 1319 1324 1331 1338 1345 1352 1359 1366 1373 1381 1388 1396 1405 1414 1423 1432 1441 1450 1458 1465 1471 1477 1483 1490 1495 1499 1501 1503 1504 1506 1508 1508 1508 1505 1502 1499 1496 1493 1492 1494 1493 1492 1492 1494 1491 1488 1484 1481 1477 1472 1473 1467 1462 1456 1452 1447 1442 1440 1435 1426 1416 1406 1397 1388 1381 1375 1369 1364 1358 1351 1343 1334 1325 1317 1309 1300 1289 1278 1268 1260 1252 1243 1233 1226 1219 1212 1204 1197 1191 1187 1179 1171 1164 1162 1158 1153 1148 1145 1138 1131 1127 1127 1122 1123 1120 1117 1112 1109 1114 1118 1125 1133 1142 1148 1155 1161 1167 1172 1176 1181 1180 1183 1186 1183 1181 1181 1177 1171 1170 1171 1173 1177 1175 1175 1170 1163 1155 1146 1136 1125 1115 1104 1095 1087 1080 1083 1088 1092 1093 1095 1092 1088 1082 1074 1065 1056 1047 1036 1026 1020 1012 1004 997 989 983 977 969 960 951 941 931 922 915 910 913 917 917 915 916 914 917 920 921 913 907 906 903 899 900 902 899 897 896 899 898 898 899 896 896 895 893 896 896 893 895 894 889 890 885 887 892 900 910 919 925 920 913 908 907 911 910 905 897 889 885 880 878 877 875 874 871 873 875 878 880 886 894 903 913 924 934 939 934 926 917 908 902 906 910 914 923 935 944 953 962 968
1276 1282 1288 1295 1301 1307 1313 1318 1324 1331 1338 1345 1352 1360 1367 1375 1382 1390 1399 1408 1418 1427 1436 1445 1454 1461 1467 1473 1479 1485 1490 1494 1497 1499 1501 1504 1505 1506 1505 1502 1500 1497 1493 1491 1488 1489 1490 1489 1487 1487 1484 1483 1479 1478 1477 1473 1467 1463 1458 1453 1450 1450 1445 1441 1436 1429 1419 1410 1402 1394 1387 1384 1378 1372 1367 1361 1353 1344 1335 1325 1317 1307 1296 1284 1273 1264 1257 1248 1239 1231 1225 1217 1210 1203 1196 1194 1185 1175 1164 1156 1153 1147 1142 1138 1131 1125 1121 1121 1117 1117 1115 1111 1106 1108 1108 1112 1118 1125 1132 1139 1146 1153 1157 1163 1166 1169 1169 1174 1176 1173 1172 1172 1169 1163 1162 1163 1166 1169 1171 1173 1171 1164 1155 1146 1138 1130 1121 1110 1101 1093 1087 1092 1095 1099 1099 1101 1096 1095 1088 1081 1073 1064 1056 1046 1036 1029 1022 1014 1006 999 993 986 978 967 956 945 934 925 917 911 908 911 913 916 913 908 910 914 918 912 908 907 900 902 905 909 906 901 896 896 895 892 897 894 891 892 896 894 897 892 889 889 886 887 889 895 903 912 922 931 938 933 927 919 915 919 917 912 903 897 892 889 886 883 881 878 876 874 871 871 872 878 884 893 902 914 925 933 931 922 912 902 898 903 910 919 930 942 950 959 967 974
1271 1276 1282 1289 1295 1301 1306 1311 1317 1324 1331 1338 1346 1354 1361 1369 1376 1384 1394 1403 1412 1422 1431 1440 1449 1456 1463 1469 1475 1480 1485 1489 1492 1494 1497 1500 1502 1503 1502 1501 1498 1496 1492 1487 1482 1484 1483 1484 1481 1479 1476 1477 1475 1475 1471 1465 1461 1457 1452 1447 1444 1443 1441 1435 1431 1424 1416 1409 1405 1400 1395 1394 1387 1381 1377 1371 1363 1355 1344 1334 1324 1313 1302 1290 1278 1268 1259 1252 1243 1236 1227 1219 1212 1205 1199 1194 1185 1174 1164 1157 1152 1147 1142 1136 1129 1125 1120 1118 1115 1112 1109 1107 1101 1103 1101 1105 1110 1116 1123 1128 1135 1142 1146 1151 1154 1155 1158 1163 1165 1161 1162 1162 1159 1154 1152 1154 1158 1161 1165 1166 1163 1156 1146 1138 1130 1124 1118 1112 1106 1098 1094 1098 1100 1099 1097 1099 1096 1096 1090 1084 1077 1070 1063 1053 1043 1035 1025 1015 1008 1003 998 991 982 972 960 949 941 932 924 916 910 910 911 912 912 910 910 910 913 909 905 903 906 911 915 919 917 912 906 903 898 896 895 896 894 894 897 892 895 890 890 890 886 890 896 905 914 924 933 942 948 944 939 931 925 926 924 917 912 908 904 902 899 896 894 890 887 883 880 878 876 877 878 885 893 904 916 926 927 919 910 903 903 909 916 924 935 945 953 960 964 970
1267 1272 1278 1284 1290 1295 1300 1305 1311 1318 1325 1332 1339 1347 1356 1364 1371 1379 1389 1398 1408 1417 1426 1435 1444 1452 1459 1466 1471 1476 1480 1484 1487 1489 1492 1495 1498 1500 1501 1501 1497 1492 1487 1480 1475 1477 1476 1474 1471 1469 1466 1466 1466 1463 1457 1451 1449 1445 1441 1438 1435 1431 1428 1423 1419 1415 1410 1407 1408 1406 1401 1401 1395 1391 1386 1381 1373 1365 1354 1343 1330 1319 1308 1295 1283 1273 1264 1256 1248 1240 1231 1222 1214 1207 1199 1191 1181 1171 1164 1163 1158 1153 1148 1143 1137 1132 1127 1121 1114 1109 1104 1104 1101 1098 1095 1099 1102 1108 1113 1117 1123 1129 1133 1139 1142 1141 1145 1150 1151 1149 1151 1152 1150 1144 1143 1145 1150 1152 1158 1158 1154 1147 1137 1128 1120 1113 1109 1107 1108 1101 1096 1095 1096 1096 1093 1095 1095 1092 1089 1082 1076 1070 1062 1052 1039 1029 1017 1008 1000 995 993 986 977 969 960 952 946 939 930 921 916 916 914 910 909 907 908 908 906 904 903 909 916 923 927 930 930 926 919 913 907 902 897 897 896 897 895 890 892 886 889 890 891 897 905 915 926 935 944 951 957 956 949 941 935 932 930 925 923 922 917 918 915 911 910 905 901 897 893 890 886 883 877 878 885 896 908 919 919 913 905 903 910 916 921 927 935 943 951 956 956 962
1264 1268 1274 1279 1284 1289 1294 1300 1306 1313 1320 1327 1335 1343 1352 1360 1368 1376 1385 1394 1403 1412 1421 1430 1439 1447 1455 1461 1466 1470 1474 1478 1482 1486 1489 1492 1495 1497 1498 1497 1491 1484 1478 1471 1466 1467 1468 1466 1462 1460 1460 1459 1459 1455 1450 1445 1443 1438 1433 1429 1427 1422 1419 1415 1411 1410 1406 1408 1413 1411 1406 1402 1401 1399 1393 1387 1379 1371 1361 1349 1335 1322 1309 1297 1287 1276 1267 1261 1254 1244 1235 1227 1218 1210 1202 1194 1186 1179 1173 1172 1166 1162 1157 1153 1146 1141 1135 1128 1121 1115 1109 1104 1098 1093 1090 1093 1094 1100 1103 1106 1111 1115 1121 1126 1128 1128 1132 1137 1137 1137 1139 1142 1141 1135 1134 1136 1142 1144 1150 1150 1145 1137 1127 1116 1108 1102 1098 1100 1103 1098 1095 1091 1090 1089 1087 1090 1091 1087 1084 1078 1072 1064 1056 1046 1033 1022 1011 1000 992 986 984 977 969 961 954 947 944 939 931 924 918 914 913 911 907 905 904 903 903 904 911 919 927 934 939 942 945 939 931 924 917 911 906 905 902 898 898 897 898 893 894 894 897 904 913 925 936 945 953 959 964 963 958 951 944 937 934 936 936 936 931 932 930 926 926 921 917 911 907 901 896 889 882 878 881 891 901 911 911 905 898 901 907 914 916 921 929 937 944 949 948 954
1260 1264 1269 1274 1279 1284 1290 1296 1303 1310 1317 1324 1332 1340 1349 1357 1366 1374 1381 1389 1397 1406 1415 1424 1433 1441 1448 1455 1460 1463 1467 1472 1477 1482 1487 1490 1490 1491 1490 1487 1480 1473 1467 1461 1456 1455 1458 1456 1452 1453 1453 1453 1452 1448 1443 1440 1435 1430 1425 1420 1417 1412 1412 1410 1404 1404 1403 1405 1411 1414 1411 1407 1406 1403 1398 1392 1385 1376 1367 1353 1339 1325 1313 1301 1290 1279 1268 1260 1252 1240 1230 1222 1216 1214 1208 1202 1194 1187 1185 1182 1177 1174 1169 1163 1157 1152 1146 1138 1131 1123 1116 1109 1103 1097 1092 1087 1083 1085 1088 1091 1096 1100 1105 1109 1112 1113 1118 1122 1122 1125 1129 1133 1133 1127 1125 1127 1133 1134 1139 1140 1135 1127 1117 1105 1096 1091 1089 1092 1096 1093 1093 1089 1086 1084 1081 1085 1088 1084 1078 1071 1065 1058 1050 1039 1027 1018 1007 997 988 981 975 967 960 953 945 939 939 933 926 918 913 909 909 909 906 905 906 910 911 915 922 931 939 945 949 952 956 949 941 933 927 923 918 914 909 904 906 907 908 905 900 896 902 911 921 932 943 952 959 965 968 969 964 957 951 944 941 945 949 947 945 944 943 938 936 933 927 921 915 909 902 894 887 880 878 885 894 902 900 898 892 896 902 908 911 915 923 930 938 941 941 947
1256 1260 1265 1270 1276 1282 1288 1295 1301 1308 1314 1321 1329 1337 1345 1354 1362 1371 1378 1385 1393 1401 1410 1419 1427 1434 1441 1447 1452 1456 1461 1466 1472 1477 1481 1482 1481 1480 1477 1473 1467 1461 1455 1449 1444 1443 1445 1446 1443 1446 1447 1447 1445 1441 1438 1434 1428 1423 1416 1411 1407 1401 1403 1403 1398 1399 1398 1402 1408 1413 1413 1412 1408 1403 1400 1395 1387 1377 1364 1349 1336 1326 1316 1305 1294 1282 1270 1261 1251 1240 1232 1225 1219 1219 1214 1209 1202 1196 1195 1191 1186 1187 1182 1175 1168 1162 1155 1147 1139 1131 1124 1116 1109 1103 1097 1090 1082 1077 1080 1081 1084 1086 1092 1094 1098 1098 1103 1107 1109 1114 1120 1122 1122 1114 1103 1098 1092 1086 1087 1092 1095 1091 1083 1077 1071 1072 1076 1078 1081 1084 1086 1083 1082 1077 1073 1079 1081 1077 1071 1064 1058 1052 1045 1035 1025 1016 1007 997 986 977 968 959 951 945 937 931 932 928 923 917 913 914 911 907 909 912 917 922 924 928 935 943 950 952 956 959 959 952 945 942 937 934 929 924 916 912 916 917 919 917 909 902 905 914 926 937 948 955 962 967 971 971 969 961 957 952 948 953 959 957 958 954 951 946 938 930 923 917 911 904 898 892 885 879 873 878 886 892 890 890 886 890 895 900 904 909 916 923 930 932 937 944
1253 1258 1264 1268 1273 1280 1287 1294 1300 1306 1312 1319 1327 1334 1342 1351 1359 1368 1376 1383 1390 1398 1406 1414 1421 1428 1434 1440 1445 1449 1454 1460 1465 1469 1471 1471 1468 1466 1462 1458 1453 1448 1442 1437 1433 1430 1433 1435 1435 1438 1441 1441 1437 1435 1434 1427 1420 1414 1408 1401 1396 1392 1393 1392 1391 1395 1400 1405 1409 1408 1408 1409 1409 1407 1403 1396 1388 1378 1365 1353 1340 1329 1319 1307 1296 1285 1273 1264 1254 1244 1237 1230 1227 1225 1221 1216 1210 1204 1205 1202 1197 1199 1195 1188 1180 1173 1165 1157 1148 1140 1132 1125 1117 1109 1102 1094 1087 1079 1073 1074 1074 1076 1081 1083 1087 1089 1093 1096 1100 1107 1115 1116 1115 1108 1097 1092 1091 1090 1091 1096 1099 1092 1084 1075 1068 1066 1070 1071 1073 1081 1080 1077 1072 1066 1061 1061 1056 1059 1057 1051 1045 1040 1037 1031 1022 1016 1004 992 982 974 963 952 943 935 928 924 924 921 918 915 916 915 915 913 917 923 929 935 938 942 948 954 959 959 960 959 957 954 950 953 947 943 939 931 924 921 926 927 929 926 917 909 905 913 925 936 946 954 960 964 969 973 970 966 963 960 956 960 966 968 967 961 956 947 937 927 921 915 909 903 900 895 890 882 875 877 878 883 880 882 880 883 887 891 896 902 909 916 922 924 932 939
1251 1256 1261 1266 1271 1278 1286 1293 1299 1305 1311 1318 1324 1331 1339 1348 1357 1366 1374 1382 1389 1396 1403 1410 1416 1423 1428 1434 1438 1442 1447 1452 1456 1458 1459 1457 1455 1452 1448 1444 1441 1436 1430 1425 1421 1419 1422 1424 1427 1430 1432 1430 1427 1425 1424 1417 1411 1405 1398 1391 1387 1382 1383 1384 1386 1390 1396 1401 1403 1403 1401 1403 1407 1406 1403 1395 1386 1374 1362 1351 1340 1329 1318 1306 1295 1284 1274 1266 1257 1249 1242 1238 1236 1232 1228 1224 1219 1214 1214 1212 1209 1210 1205 1200 1192 1184 1177 1168 1159 1150 1141 1134 1126 1118 1109 1102 1094 1086 1078 1071 1066 1067 1071 1071 1075 1079 1083 1086 1091 1100 1107 1112 1110 1103 1091 1085 1085 1086 1086 1089 1091 1085 1078 1069 1062 1062 1065 1065 1067 1074 1074 1071 1065 1059 1055 1058 1055 1057 1052 1045 1038 1033 1030 1025 1016 1010 998 986 975 967 957 947 937 929 925 927 925 922 918 915 917 919 918 925 932 941 950 959 966 973 976 973 968 966 963 958 960 964 966 968 962 955 948 940 932 930 935 936 938 934 924 915 906 911 923 934 945 953 960 961 966 972 971 972 970 970 966 968 973 977 973 965 955 945 937 933 932 925 918 912 908 901 896 887 879 872 876 875 874 877 875 877 880 883 888 895 901 908 914 918 926 934
1248 1253 1258 1264 1270 1277 1284 1291 1298 1304 1310 1316 1322 1329 1338 1347 1356 1365 1374 1382 1389 1395 1401 1406 1412 1418 1423 1428 1431 1434 1437 1440 1443 1445 1444 1442 1440 1437 1433 1431 1428 1423 1418 1412 1409 1410 1413 1415 1418 1422 1421 1417 1414 1412 1412 1405 1399 1394 1387 1382 1377 1372 1374 1378 1385 1391 1391 1394 1396 1397 1398 1401 1403 1399 1396 1389 1381 1370 1360 1351 1341 1330 1320 1309 1298 1289 1279 1272 1264 1256 1248 1246 1244 1241 1237 1232 1229 1224 1224 1223 1220 1220 1215 1211 1203 1196 1190 1181 1171 1160 1151 1144 1137 1129 1120 1112 1103 1094 1086 1077 1070 1064 1063 1062 1063 1069 1073 1077 1084 1092 1100 1106 1106 1102 1092 1083 1080 1079 1077 1080 1083 1078 1071 1063 1057 1059 1060 1058 1059 1065 1067 1063 1058 1051 1048 1053 1052 1051 1045 1038 1030 1025 1024 1017 1009 1003 991 979 968 959 949 941 934 935 933 936 933 929 925 920 917 919 924 931 940 949 958 966 974 981 983 980 975 971 965 961 967 973 977 979 973 966 959 951 943 943 949 953 954 946 935 925 914 910 919 931 942 952 959 967 974 978 979 981 983 980 978 979 982 986 980 971 960 953 947 946 944 937 929 921 915 907 902 892 883 876 876 873 875 877 873 873 874 876 881 888 894 902 907 914 923 930
1245 1250 1255 1261 1268 1275 1281 1288 1295 1301 1307 1314 1321 1329 1338 1347 1356 1365 1375 1383 1390 1395 1399 1403 1408 1414 1418 1420 1422 1424 1426 1429 1431 1431 1430 1428 1426 1423 1420 1417 1413 1410 1405 1400 1396 1400 1401 1404 1407 1411 1408 1405 1401 1399 1397 1392 1388 1382 1375 1371 1366 1363 1367 1373 1380 1386 1386 1388 1389 1391 1392 1396 1396 1392 1389 1383 1376 1368 1359 1349 1340 1329 1320 1311 1302 1294 1285 1278 1270 1264 1258 1257 1255 1254 1250 1244 1240 1237 1236 1237 1233 1232 1226 1222 1214 1208 1202 1193 1182 1172 1163 1156 1148 1140 1131 1122 1112 1102 1095 1085 1077 1069 1063 1056 1054 1059 1063 1068 1076 1085 1092 1099 1105 1102 1093 1084 1075 1069 1067 1072 1074 1070 1063 1057 1053 1057 1057 1055 1055 1058 1060 1056 1049 1042 1040 1044 1043 1041 1037 1032 1023 1018 1014 1009 1000 994 983 971 960 950 941 936 938 944 945 944 942 937 932 925 919 923 928 936 946 955 964 973 981 988 991 988 981 975 967 962 969 978 984 987 981 973 965 956 948 950 955 959 960 951 940 928 919 912 918 928 938 946 953 962 970 978 983 986 990 988 989 989 990 994 987 978 970 968 967 970 965 958 947 933 920 910 901 891 879 870 864 866 870 873 875 873 875 875 877 884 892 900 907 914 921 927
1243 1248 1253 1258 1265 1272 1279 1285 1291 1298 1305 1312 1320 1329 1338 1347 1356 1366 1375 1383 1389 1394 1397 1401 1406 1411 1413 1414 1415 1417 1419 1422 1423 1422 1419 1417 1415 1412 1409 1406 1403 1400 1395 1390 1386 1391 1390 1393 1395 1398 1395 1393 1389 1385 1381 1380 1375 1369 1364 1359 1356 1356 1359 1366 1374 1379 1379 1380 1384 1387 1387 1390 1388 1386 1382 1377 1373 1366 1359 1351 1342 1333 1324 1316 1307 1300 1291 1285 1279 1274 1270 1269 1267 1268 1263 1258 1254 1253 1251 1251 1246 1245 1239 1232 1225 1218 1213 1205 1193 1183 1175 1167 1160 1151 1142 1132 1122 1112 1104 1093 1084 1077 1069 1061 1053 1052 1054 1059 1067 1077 1086 1093 1097 1095 1088 1078 1069 1062 1059 1063 1065 1062 1056 1050 1053 1058 1054 1054 1053 1052 1052 1048 1041 1034 1031 1034 1033 1030 1030 1025 1018 1011 1004 1000 991 985 973 961 950 942 938 940 946 953 955 951 946 940 935 929 921 924 931 941 952 961 971 981 989 996 999 996 989 981 973 968 975 983 991 993 988 980 970 961 953 956 962 964 964 955 944 934 925 918 917 924 935 944 952 961 968 975 982 988 992 995 998 998 997 997 989 982 976 977 979 979 973 964 952 938 926 915 906 896 886 876 869 869 866 868 873 876 874 874 875 881 890 898 905 912 918 924
1241 1246 1250 1255 1262 1269 1275 1282 1288 1296 1303 1311 1319 1327 1335 1344 1353 1363 1373 1382 1389 1394 1398 1401 1405 1408 1410 1411 1410 1410 1412 1414 1414 1412 1409 1407 1404 1401 1398 1396 1394 1391 1387 1381 1377 1382 1378 1381 1383 1385 1382 1380 1376 1373 1369 1366 1362 1358 1352 1349 1347 1347 1352 1358 1364 1369 1371 1374 1379 1380 1381 1385 1382 1382 1379 1375 1372 1366 1359 1352 1345 1338 1330 1323 1314 1306 1298 1293 1290 1287 1282 1279 1278 1280 1275 1271 1267 1269 1265 1263 1258 1257 1252 1245 1238 1230 1223 1214 1203 1194 1187 1179 1172 1163 1154 1143 1133 1122 1113 1102 1093 1085 1076 1067 1058 1050 1047 1050 1058 1069 1078 1086 1087 1086 1080 1073 1065 1056 1051 1054 1056 1052 1047 1049 1054 1059 1056 1053 1047 1045 1044 1040 1033 1026 1021 1023 1023 1022 1021 1017 1011 1003 996 990 982 975 964 954 946 942 944 949 955 960 962 956 949 942 935 928 921 923 932 944 957 968 978 988 996 1003 1006 1004 997 988 980 973 978 985 992 994 990 981 971 962 957 962 969 971 968 960 950 941 933 925 921 928 936 945 952 961 968 975 982 988 992 998 1003 1004 1002 996 989 986 982 985 990 988 981 970 958 944 933 923 914 905 896 886 879 875 870 866 867 872 873 869 872 878 887 894 900 906 912 918
1237 1242 1246 1252 1259 1266 1272 1279 1286 1294 1302 1309 1317 1325 1332 1341 1350 1360 1370 1379 1387 1393 1398 1401 1404 1407 1408 1409 1407 1405 1405 1405 1405 1402 1399 1397 1394 1390 1387 1385 1384 1382 1377 1372 1367 1372 1367 1368 1370 1371 1368 1368 1363 1362 1359 1355 1350 1346 1341 1339 1338 1338 1343 1349 1354 1358 1361 1367 1373 1373 1375 1378 1375 1379 1378 1373 1369 1366 1362 1356 1350 1343 1337 1330 1322 1316 1309 1303 1303 1299 1296 1291 1291 1292 1288 1284 1281 1283 1278 1274 1269 1269 1265 1259 1253 1244 1234 1224 1214 1206 1200 1192 1184 1175 1165 1155 1145 1133 1123 1112 1102 1092 1082 1072 1063 1055 1048 1044 1050 1060 1070 1077 1078 1078 1072 1066 1058 1049 1043 1045 1046 1042 1039 1043 1050 1055 1050 1046 1040 1038 1038 1034 1026 1017 1012 1013 1014 1013 1013 1011 1004 996 987 980 973 966 959 957 954 951 953 959 964 968 963 956 949 942 937 933 926 925 935 948 962 974 984 994 1002 1009 1012 1011 1004 996 987 980 983 989 996 998 992 983 974 966 962 968 974 977 974 966 956 948 940 932 925 929 938 948 957 965 972 979 983 989 995 1000 1004 1004 1003 997 995 994 991 992 996 993 986 976 963 951 942 933 924 915 906 898 890 886 881 874 868 867 872 869 871 875 883 889 894 900 906 911
1232 1237 1242 1248 1254 1262 1269 1276 1284 1292 1300 1308 1316 1323 1331 1340 1350 1359 1368 1376 1384 1392 1398 1402 1405 1405 1405 1405 1404 1402 1399 1397 1395 1392 1388 1386 1384 1381 1377 1375 1374 1372 1368 1363 1357 1362 1356 1357 1357 1357 1355 1354 1349 1351 1349 1343 1339 1335 1330 1329 1330 1330 1334 1340 1343 1348 1354 1360 1365 1365 1367 1370 1369 1373 1373 1370 1368 1365 1362 1357 1355 1349 1345 1339 1332 1328 1322 1317 1315 1313 1310 1305 1305 1305 1300 1297 1293 1294 1292 1286 1280 1280 1277 1271 1266 1257 1247 1237 1227 1219 1212 1204 1196 1187 1177 1167 1156 1143 1133 1121 1110 1099 1087 1076 1066 1058 1051 1044 1043 1052 1061 1068 1070 1070 1064 1057 1049 1042 1036 1036 1037 1035 1033 1037 1044 1047 1042 1037 1032 1032 1036 1033 1026 1018 1010 1005 1003 1004 1005 1003 996 988 979 972 965 960 962 965 965 963 962 967 972 974 968 961 954 947 942 939 933 928 936 947 960 973 984 993 1003 1011 1014 1010 1006 1003 995 990 987 986 991 997 995 989 981 974 969 972 978 982 979 972 962 955 946 938 930 931 939 948 958 967 975 981 983 990 998 1003 1004 1001 1000 1000 1002 1003 1001 999 997 993 985 976 965 958 950 943 934 924 915 906 899 897 894 886 877 873 870 866 866 870 876 883 890 897 903 908
1227 1232 1238 1244 1250 1257 1265 1273 1281 1290 1298 1307 1314 1322 1330 1340 1350 1359 1369 1377 1385 1392 1398 1402 1404 1404 1402 1401 1399 1397 1393 1389 1386 1382 1379 1377 1374 1372 1369 1367 1365 1362 1358 1353 1348 1351 1346 1346 1344 1343 1344 1342 1337 1341 1338 1334 1329 1324 1320 1321 1323 1322 1326 1331 1335 1339 1346 1352 1357 1357 1359 1361 1363 1367 1368 1366 1366 1364 1361 1357 1358 1355 1352 1347 1343 1340 1335 1331 1328 1325 1323 1319 1319 1317 1312 1309 1304 1305 1302 1296 1290 1290 1287 1282 1277 1269 1260 1251 1242 1232 1224 1216 1209 1199 1189 1178 1166 1153 1143 1130 1118 1106 1093 1081 1069 1059 1050 1040 1036 1044 1052 1059 1062 1060 1053 1047 1041 1035 1030 1030 1032 1028 1026 1032 1036 1036 1032 1027 1024 1026 1031 1030 1025 1019 1010 1001 994 994 998 995 989 981 972 965 960 962 969 973 975 974 971 971 978 979 975 969 962 956 951 946 939 932 934 943 955 968 980 989 999 1006 1011 1010 1011 1009 1001 998 994 988 990 996 1000 995 989 982 976 976 981 982 982 975 967 959 950 941 933 934 940 947 955 965 973 981 986 991 998 1003 1004 1006 1003 1006 1008 1010 1009 1006 1000 993 985 976 968 965 958 951 942 931 923 914 907 907 904 897 888 882 877 871 864 865 871 878 887 896 905 912
1224 1229 1235 1241 1247 1254 1262 1270 1279 1287 1296 1304 1312 1319 1329 1339 1349 1359 1368 1376 1384 1391 1398 1402 1403 1403 1401 1397 1394 1390 1385 1381 1377 1373 1370 1368 1365 1363 1360 1358 1356 1353 1349 1345 1340 1340 1336 1336 1333 1331 1333 1332 1328 1329 1327 1323 1319 1315 1311 1312 1313 1313 1319 1324 1327 1332 1338 1344 1349 1348 1351 1354 1358 1362 1362 1362 1364 1363 1364 1360 1359 1359 1358 1355 1354 1352 1346 1343 1339 1336 1335 1332 1330 1327 1322 1321 1315 1312 1309 1303 1299 1298 1295 1290 1285 1278 1269 1261 1252 1243 1235 1227 1219 1210 1200 1189 1177 1163 1152 1139 1125 1112 1099 1086 1073 1061 1051 1041 1033 1036 1042 1049 1053 1049 1042 1036 1034 1031 1028 1025 1030 1026 1021 1026 1028 1025 1021 1018 1016 1019 1023 1025 1023 1017 1008 998 989 986 989 986 979 972 966 961 962 968 975 981 985 984 980 977 982 985 983 977 970 964 959 953 946 937 935 941 950 962 974 986 995 1002 1007 1006 1008 1011 1006 1005 1002 995 994 1000 1005 1002 997 990 984 981 984 984 981 974 966 957 949 940 933 932 939 947 956 966 974 980 984 990 996 1001 1004 1009 1009 1013 1013 1015 1014 1012 1005 998 989 980 973 972 966 958 948 938 930 922 916 914 909 902 898 893 886 879 871 866 866 872 879 888 898 906
1220 1226 1232 1238 1245 1252 1261 1269 1277 1286 1294 1302 1309 1317 1327 1337 1347 1357 1367 1377 1386 1393 1399 1403 1402 1400 1397 1393 1387 1382 1377 1372 1368 1364 1361 1358 1356 1355 1352 1351 1348 1345 1341 1337 1332 1330 1327 1326 1325 1321 1324 1324 1320 1319 1317 1314 1311 1306 1303 1303 1303 1305 1310 1316 1321 1325 1330 1336 1341 1341 1346 1348 1352 1355 1357 1362 1366 1364 1365 1365 1363 1363 1364 1361 1363 1361 1356 1353 1350 1347 1345 1342 1341 1336 1331 1330 1324 1319 1314 1309 1306 1303 1301 1296 1291 1284 1276 1268 1259 1250 1243 1235 1227 1218 1209 1199 1186 1172 1161 1147 1132 1118 1104 1090 1078 1066 1057 1046 1037 1032 1035 1039 1042 1037 1030 1026 1026 1024 1022 1026 1032 1027 1020 1020 1019 1015 1012 1009 1007 1011 1016 1020 1018 1011 1004 995 985 978 980 976 970 964 964 968 969 974 981 988 994 993 991 985 981 986 990 985 978 972 966 958 950 943 942 946 954 963 974 985 993 999 1001 1002 1008 1013 1010 1011 1009 1003 998 1002 1008 1010 1005 997 991 985 987 984 978 970 962 953 946 939 933 937 944 953 963 973 980 985 984 989 995 1001 1006 1013 1014 1017 1019 1019 1017 1013 1006 998 991 982 976 976 971 963 954 947 940 933 926 920 913 908 906 902 895 887 880 872 867 868 872 880 889 899
1217 1222 1229 1236 1243 1251 1260 1268 1276 1285 1292 1300 1307 1315 1325 1335 1347 1359 1370 1381 1391 1398 1402 1403 1399 1395 1391 1386 1380 1375 1368 1363 1359 1355 1351 1349 1347 1346 1345 1344 1341 1337 1333 1329 1325 1310 1303 1297 1289 1282 1276 1272 1281 1289 1295 1299 1291 1291 1289 1291 1291 1295 1301 1307 1313 1318 1323 1330 1336 1340 1344 1343 1345 1347 1351 1356 1362 1364 1366 1370 1368 1368 1369 1368 1371 1368 1365 1361 1359 1357 1351 1349 1348 1342 1337 1336 1330 1326 1319 1312 1307 1303 1298 1292 1286 1280 1273 1265 1257 1251 1246 1238 1230 1223 1215 1207 1194 1179 1168 1153 1137 1122 1108 1095 1082 1071 1059 1048 1037 1029 1030 1030 1032 1026 1020 1016 1019 1015 1018 1021 1026 1025 1018 1013 1010 1006 1003 1000 998 1003 1009 1013 1011 1005 998 990 982 975 972 968 965 968 974 981 980 981 987 995 1001 1000 1000 994 988 991 994 990 983 978 971 962 954 948 951 956 961 968 977 986 992 997 1001 1005 1009 1011 1015 1017 1016 1010 1004 1004 1006 1006 1003 998 991 987 984 980 973 964 957 948 942 935 935 942 951 959 969 978 985 989 990 994 999 1004 1009 1015 1018 1021 1025 1020 1018 1012 1005 998 992 986 980 973 965 963 960 958 951 944 936 929 920 914 913 909 902 895 886 876 869 866 869 873 882 890
